# .PCD v0.7 - Point Cloud Data file format
VERSION 0.7
FIELDS x y z
SIZE 4 4 4
TYPE F F F
COUNT 1 1 1
WIDTH 1403
HEIGHT 1
VIEWPOINT 0 0 0 1 0 0 0
POINTS 1403
DATA ascii
0.16510227 -0.0083787935 0.99806666
0.17265116 -0.0094014509 0.99366623
0.17578177 -0.011212733 0.99391633
0.12928204 -0.0089852875 1.0039165
0.13141787 -0.0073308055 1.0019636
0.13707589 -0.007515735 1.0035419
0.14831139 -0.0062566125 1.0012774
0.15690313 -0.0062147654 0.99874812
0.12495821 -0.13266565 0.93578446
0.12722158 -0.1325606 0.93444395
0.13264754 -0.13271247 0.93237734
0.1382374 -0.13431996 0.93425989
0.14129366 -0.13386032 0.93313974
0.14686716 -0.13246508 0.93068206
0.15365562 -0.13190843 0.93108749
0.1557548 -0.13158837 0.9311896
0.10961988 -0.12902105 0.94123703
0.11329569 -0.12989889 0.93901622
0.11727133 -0.13190052 0.93933815
0.15988955 -0.13063931 0.93139976
0.16158135 -0.12904526 0.92982215
0.16670635 -0.12934092 0.93288732
0.1704644 -0.12600577 0.93044043
0.10412501 -0.12642249 0.94330049
0.17283876 -0.1255495 0.93153089
0.098193727 -0.123709 0.94754249
0.18254828 -0.12006107 0.93304735
0.090149023 -0.11753841 0.95222247
0.093860753 -0.1209399 0.95052063
0.18878846 -0.11587822 0.9349274
0.087917775 -0.11552098 0.95392948
0.19601662 -0.10751297 0.93548417
0.083673649 -0.1100824 0.95520955
0.19859824 -0.10572553 0.93784344
0.20055343 -0.10285736 0.93828332
0.081157051 -0.10677878 0.95707482
0.20331097 -0.099776186 0.9406516
0.078405343 -0.10264392 0.96156317
0.2067868 -0.096009143 0.94503075
0.076007225 -0.098057449 0.96528381
0.20812103 -0.0934617 0.94599688
0.073689394 -0.091900595 0.96919286
0.13897321 -0.089937501 0.9575485
0.14927335 -0.088551834 0.95623767
0.21009934 -0.087408945 0.94662964
0.072928503 -0.088943981 0.97124797
0.12686117 -0.085406832 0.96331716
0.13009477 -0.088081017 0.96242243
0.1536282 -0.087777406 0.95823038
0.21115087 -0.083988622 0.94753546
0.21205544 -0.083311275 0.95029438
0.07238473 -0.085508883 0.97504169
0.12443577 -0.082953535 0.96590257
0.16056639 -0.082773894 0.96095848
0.21293674 -0.08033675 0.95186788
0.071835265 -0.080412388 0.97801507
0.12184899 -0.078129031 0.97021264
0.16326278 -0.077937454 0.9618932
0.21406804 -0.076561965 0.95528901
0.071940981 -0.078014694 0.97991103
0.12127426 -0.075451851 0.97166896
0.21456748 -0.069773726 0.95702314
0.071873181 -0.071147032 0.98226368
0.12137041 -0.069146141 0.97410029
0.1656291 -0.069120593 0.96868968
0.21475174 -0.06490317 0.95970005
0.072558053 -0.067435756 0.98422658
0.16387047 -0.062770359 0.97140372
0.21433689 -0.061646838 0.95967716
0.073496573 -0.062217668 0.98642987
0.12346186 -0.062564172 0.97599411
0.12705848 -0.05928864 0.97929162
0.16186064 -0.05947978 0.97307616
0.074505895 -0.059091572 0.98854953
0.12810278 -0.056820937 0.97800368
0.13206364 -0.056124721 0.98152125
0.15667497 -0.055072319 0.97668165
0.15903887 -0.055886433 0.97388458
0.21335723 -0.053623855 0.96527749
0.13815999 -0.053835321 0.98268467
0.14111631 -0.050976124 0.97901624
0.14616063 -0.051784102 0.97985888
0.15082768 -0.052838687 0.97960407
0.21258216 -0.05028981 0.96978736
0.078654282 -0.049401198 0.99396414
0.21042238 -0.044524152 0.97255629
0.081960857 -0.04410354 0.99681091
0.20875145 -0.041009393 0.97504634
0.20554629 -0.035388287 0.9779166
0.0856352 -0.039296564 0.99945807
0.087563939 -0.035464991 0.99898505
0.20224257 -0.03139 0.98245192
0.20455007 -0.034545116 0.98124182
0.089653179 -0.034216039 1.0010233
0.092074923 -0.032371078 1.002874
0.19969793 -0.029359367 0.98652917
0.20019513 -0.028875565 0.98324519
0.097830966 -0.025688907 1.0028367
0.19520065 -0.024202157 0.98751962
0.10240309 -0.02315128 1.0050273
0.18745637 -0.019305 0.99362791
0.18979608 -0.019497288 0.98949969
0.10603345 -0.021775028 1.0070779
0.10862607 -0.019764412 1.0067614
0.11404476 -0.016390726 1.0066916
0.1845144 -0.01797739 0.99597299
0.12395879 -0.013221997 1.0081449
0.12742099 -0.011779328 1.0075722
0.16499589 -0.010665108 1.0024844
0.16599818 -0.010276048 1.0010306
0.17293885 -0.012594109 0.99969476
0.17650856 -0.012897745 0.99650359
0.12784003 -0.012035636 1.0081623
0.13239221 -0.0092127584 1.0052412
0.13842535 -0.0086740796 1.005638
0.14454739 -0.0092959711 1.0068545
0.15011188 -0.0087452754 1.0052812
0.15813529 -0.0094827302 1.0041322
0.16289651 -0.0094141709 1.0015965
0.12567818 -0.13530168 0.94023931
0.12806977 -0.13550347 0.93934876
0.13189362 -0.1349729 0.93660414
0.13742988 -0.13543516 0.93631697
0.14327674 -0.13586384 0.93644673
0.14836757 -0.13563634 0.93608403
0.15199573 -0.1349725 0.9355489
0.15773582 -0.13283843 0.93384117
0.11488239 -0.13260333 0.94281304
0.16006082 -0.13314158 0.93533295
0.16215816 -0.13314652 0.93633372
0.16893889 -0.12956268 0.93459231
0.17157361 -0.12932077 0.93606347
0.10342952 -0.12780756 0.94735199
0.10852765 -0.13039562 0.94537717
0.17345744 -0.12819222 0.93581295
0.1778335 -0.12552348 0.93583542
0.09584263 -0.12324549 0.95134443
0.09827444 -0.12498768 0.95028895
0.093879178 -0.12252713 0.95438761
0.19127049 -0.11536636 0.93768406
0.086752281 -0.11587836 0.95933521
0.19501683 -0.11312162 0.9404906
0.19714062 -0.11103249 0.94144523
0.083822064 -0.11250753 0.96216154
0.20029242 -0.10794678 0.94343013
0.08153785 -0.10941809 0.9643715
0.20315818 -0.10423455 0.94491148
0.077984236 -0.10303069 0.96770555
0.078989036 -0.10477468 0.96591228
0.20738694 -0.098357335 0.94867402
0.076544799 -0.099894062 0.96865487
0.075015463 -0.096144497 0.97428119
0.14088903 -0.09311986 0.96264923
0.1454993 -0.092636362 0.96150678
0.1502023 -0.091281749 0.96096337
0.21073537 -0.091808565 0.95180315
0.073650703 -0.091202915 0.97543025
0.073861346 -0.092273571 0.97325748
0.12821087 -0.088887528 0.96840239
0.13140284 -0.090736322 0.96596771
0.15759781 -0.088310353 0.96318287
0.15878779 -0.085674897 0.96149552
0.21257216 -0.085812144 0.95352405
0.0732738 -0.088572808 0.97962183
0.1258944 -0.086508252 0.96980107
0.16143577 -0.084453523 0.96460283
0.072739631 -0.084362775 0.98138523
0.12283201 -0.081127949 0.97415704
0.16502172 -0.0790492 0.96782899
0.21489988 -0.076306067 0.95897758
0.072697401 -0.079610541 0.98458236
0.12184978 -0.075923882 0.97710049
0.16537099 -0.075877026 0.9669615
0.12270585 -0.070874408 0.98008698
0.1663036 -0.07194294 0.97196597
0.21583408 -0.068558834 0.96551001
0.073144317 -0.071124367 0.98801595
0.12368122 -0.068219215 0.98119015
0.16516705 -0.066650592 0.97426635
0.21509509 -0.064190887 0.96365213
0.12737276 -0.062331144 0.98340666
0.16187982 -0.060358457 0.97621721
0.129326 -0.059788022 0.98332185
0.13294342 -0.057699427 0.98458976
0.15704809 -0.05740045 0.9815712
0.076229773 -0.058850579 0.99463755
0.13913649 -0.055998471 0.98644722
0.14312737 -0.055274826 0.98624992
0.1466253 -0.054554526 0.98467845
0.15259196 -0.055744011 0.9836514
0.15482062 -0.056421127 0.98279887
0.21215007 -0.049299072 0.97522926
0.078590386 -0.052296735 0.99630308
0.21194117 -0.048686303 0.97469407
0.080754429 -0.049738765 0.99920917
0.081890278 -0.048031285 1.0002867
0.20953822 -0.043705311 0.98011702
0.20992258 -0.044518523 0.97997588
0.2066579 -0.038639065 0.9826805
0.088649988 -0.038248487 1.0040685
0.20380139 -0.034884024 0.98597872
0.093826681 -0.034901634 1.008678
0.20027965 -0.030031187 0.98622888
0.19346876 -0.024405247 0.99270964
0.19697134 -0.027141104 0.9899562
0.1011044 -0.027761938 1.0096195
0.10250527 -0.027786445 1.0113239
0.10993298 -0.020961804 1.0096257
0.17921452 -0.016958257 1.0015637
0.1837953 -0.019085404 0.99945754
0.12426702 -0.015950439 1.0124779
0.12767269 -0.013550321 1.0104043
0.17369962 -0.013986324 1.001688
0.13004346 -0.012980286 1.0104922
0.13502385 -0.013401623 1.0126772
0.13926047 -0.011557033 1.0104114
0.14417019 -0.011436746 1.0104511
0.15683982 -0.012386064 1.0099226
0.15940474 -0.012640629 1.0093718
0.16440651 -0.012445517 1.006286
0.12366673 -0.13650954 0.94354713
0.12989862 -0.13744314 0.94202834
0.13296469 -0.13821287 0.94208908
0.14425629 -0.13857333 0.94097126
0.15045172 -0.13845906 0.94091523
0.15463892 -0.13628347 0.93832135
0.15808052 -0.13552177 0.93821019
0.1110716 -0.13312168 0.94790518
0.11536252 -0.13604626 0.94917083
0.11912633 -0.13657664 0.94687265
0.12282068 -0.13677852 0.94461626
0.16247232 -0.13577585 0.94047344
0.16922596 -0.13242114 0.93902713
0.10195782 -0.12890835 0.9521637
0.1053139 -0.13129145 0.95196104
0.10814998 -0.13205706 0.94933832
0.17824589 -0.12859328 0.94049704
0.099212296 -0.12761405 0.95445907
0.18401903 -0.12392988 0.93983197
0.18748923 -0.12286598 0.94230276
0.092109278 -0.12307696 0.96079385
0.094182596 -0.12417229 0.95769137
0.19269164 -0.11843736 0.94350117
0.087343715 -0.11780352 0.96258372
0.089319035 -0.1207755 0.96359801
0.19558044 -0.11486309 0.94345218
0.19739202 -0.11523029 0.94680166
0.085055664 -0.11535461 0.96518779
0.20049377 -0.11133935 0.94755435
0.20253547 -0.10974078 0.9495582
0.081640586 -0.11057489 0.96805483
0.20347442 -0.10588469 0.94726604
0.078205168 -0.10406193 0.97043568
0.080229305 -0.1082337 0.96999949
0.20579289 -0.10320515 0.94956642
0.077594176 -0.10317864 0.97406495
0.20953302 -0.096612789 0.95249081
0.075908199 -0.098870702 0.97743225
0.13658136 -0.094601631 0.96782535
0.14132459 -0.09533824 0.96643674
0.14704745 -0.095163412 0.96591949
0.15051809 -0.094149053 0.96563953
0.074649572 -0.094388403 0.98095256
0.12809004 -0.09079016 0.97356951
0.12962632 -0.09187258 0.97204638
0.15589565 -0.090995744 0.96497649
0.21322873 -0.087796584 0.95701009
0.073660076 -0.089318767 0.98301727
0.12501787 -0.086306565 0.97424489
0.16253996 -0.086849846 0.96907908
0.21484461 -0.081781976 0.96033573
0.073147893 -0.084449686 0.98568076
0.12364547 -0.083679788 0.97699732
0.16518138 -0.080765553 0.96954668
0.073256709 -0.081901446 0.98731554
0.12277234 -0.079959013 0.98033834
0.16650528 -0.0777319 0.97255665
0.21586904 -0.072452463 0.96413797
0.073437236 -0.077213503 0.99049449
0.12247106 -0.075048856 0.98061788
0.16700768 -0.074220039 0.97577935
0.21606483 -0.068236366 0.96762967
0.074081898 -0.073276192 0.99289197
0.12450051 -0.069936976 0.98501247
0.21593465 -0.065679222 0.96991086
0.074885063 -0.068853907 0.99489748
0.12747933 -0.066776961 0.98868477
0.16355479 -0.06433329 0.9804275
0.076479077 -0.064825527 0.99898881
0.076611459 -0.063212365 0.99871212
0.13000813 -0.063026443 0.98839158
0.13269882 -0.061780747 0.99000722
0.15771164 -0.059638742 0.98537385
0.1613441 -0.06173506 0.98194444
0.21467757 -0.057707287 0.97334307
0.13848808 -0.058193002 0.989393
0.14431728 -0.057355095 0.98988354
0.146707 -0.057470582 0.98987794
0.15406951 -0.057805367 0.98648298
0.21369685 -0.053965431 0.97734016
0.080803044 -0.05372075 1.0032148
0.21164665 -0.048436843 0.97949809
0.083429992 -0.049443755 1.0053321
0.20943335 -0.044479139 0.98532933
0.21053635 -0.046349514 0.98251742
0.084334955 -0.048240948 1.0061851
0.2076239 -0.041758489 0.98782343
0.089114897 -0.041318603 1.0082661
0.20563504 -0.038710896 0.98929459
0.09107621 -0.040170748 1.0103203
0.20015025 -0.032247368 0.99306434
0.20229447 -0.034228165 0.99053979
0.09718655 -0.034308128 1.0127695
0.099748418 -0.032977492 1.0146325
0.19451666 -0.026659759 0.995628
0.19722793 -0.02952251 0.99534684
0.1006877 -0.030654427 1.0128603
0.1059576 -0.027019996 1.0140524
0.11173456 -0.024150798 1.0157206
0.11509214 -0.021712128 1.0151564
0.18148492 -0.020615773 1.0062267
0.18486166 -0.021042483 1.0020375
0.1173083 -0.020540893 1.015094
0.1201143 -0.019057147 1.0147626
0.16629648 -0.015448805 1.0106411
0.17192763 -0.016376657 1.0081471
0.17350157 -0.016747128 1.0073643
0.13074028 -0.015368841 1.0144875
0.13374726 -0.015056523 1.0149091
0.13895266 -0.015853662 1.0174308
0.14554222 -0.014546726 1.0156684
0.15003163 -0.013496839 1.013515
0.16140302 -0.014681724 1.0121
0.16419527 -0.014864485 1.0110109
0.1258221 -0.1399136 0.94862163
0.13033864 -0.13980277 0.94606262
0.13481207 -0.14214098 0.94859284
0.1390132 -0.14063545 0.94501251
0.14534226 -0.14097904 0.94501764
0.14860921 -0.14015843 0.94348806
0.15364906 -0.13926725 0.94285858
0.16037583 -0.13894965 0.94442594
0.1168312 -0.13826905 0.95212859
0.12081414 -0.13883467 0.94991076
0.16693258 -0.13564853 0.94243568
0.17003852 -0.13509788 0.94350594
0.10497646 -0.13267194 0.95545274
0.10847402 -0.13410129 0.95319301
0.18001309 -0.13086455 0.94527692
0.18300846 -0.1299535 0.94685805
0.096767984 -0.1280286 0.96065831
0.10083285 -0.13066341 0.95828778
0.18646096 -0.12785982 0.94776297
0.093062527 -0.12561451 0.96455824
0.095303781 -0.12727548 0.96246558
0.19346257 -0.12017974 0.94675165
0.091227405 -0.1237426 0.96512026
0.19577764 -0.11866399 0.94825315
0.084673338 -0.11674457 0.97156519
0.085894458 -0.1182602 0.97036731
0.20138651 -0.11275356 0.95079648
0.082423836 -0.11336274 0.97319555
0.20545806 -0.10725199 0.95284379
0.080741465 -0.11023863 0.97446823
0.2075188 -0.10499316 0.95530987
0.077870384 -0.10445073 0.97840846
0.20960398 -0.10008186 0.95567328
0.076337785 -0.10041367 0.98218805
0.13723269 -0.097475477 0.97269976
0.1458506 -0.097573906 0.9696992
0.15255462 -0.095674172 0.96888149
0.21191762 -0.096198671 0.95867413
0.12923405 -0.093178459 0.97645289
0.13356704 -0.096411154 0.97497159
0.15537089 -0.094119422 0.96868771
0.15987915 -0.092628494 0.97170204
0.21393932 -0.093693011 0.96310717
0.21510142 -0.089849062 0.96494967
0.07470613 -0.092875049 0.98804373
0.12740548 -0.090918094 0.97651976
0.16357452 -0.088405699 0.97301358
0.21543613 -0.086228751 0.9646095
0.074405737 -0.090289444 0.98948938
0.12428073 -0.085988194 0.98222005
0.21645184 -0.081273474 0.96738011
0.074040525 -0.084797308 0.99142152
0.1232935 -0.081601299 0.98298085
0.16757004 -0.079156898 0.97771233
0.2168698 -0.079920031 0.96938962
0.073737629 -0.079294898 0.99210823
0.16774043 -0.076479957 0.98013085
0.074793749 -0.075579509 0.99669874
0.12510942 -0.071610279 0.988065
0.16675913 -0.071599767 0.98289353
0.21688579 -0.069571234 0.97391814
0.076564081 -0.070088319 1.0021043
0.12792619 -0.069191866 0.99196023
0.16388009 -0.065941587 0.98355287
0.1656125 -0.068709917 0.98322856
0.21664882 -0.066355892 0.97605872
0.076427743 -0.068300687 1.0006435
0.13460699 -0.063117132 0.99377567
0.1594291 -0.062082842 0.98768139
0.078817852 -0.062337499 1.0050251
0.13897677 -0.061624002 0.99481547
0.14381216 -0.059616365 0.99351704
0.1494375 -0.059598681 0.99279439
0.079989061 -0.059736066 1.0062931
0.21272829 -0.052072868 0.98631579
0.084168278 -0.050960269 1.0086144
0.20952708 -0.045412771 0.98865032
0.21157625 -0.049278226 0.98592168
0.086040273 -0.049482193 1.0109246
0.20826089 -0.043717518 0.99099058
0.087875523 -0.045630414 1.0107161
0.20410283 -0.038267877 0.99518949
0.095397033 -0.038921576 1.015867
0.20100845 -0.034331977 0.99575019
0.20240781 -0.036468688 0.99651748
0.09699861 -0.036417998 1.0151107
0.10157322 -0.034550913 1.0189874
0.19649257 -0.030915515 1.0010675
0.19844523 -0.032264743 0.99888134
0.10232545 -0.033166911 1.0181224
0.18877855 -0.025320413 1.0047486
0.10859089 -0.028145522 1.0183969
0.11464728 -0.025392452 1.0200659
0.18162705 -0.022404414 1.0097574
0.12150291 -0.021528186 1.0193356
0.12718421 -0.019232273 1.0188805
0.12864013 -0.018607743 1.0186093
0.17198119 -0.018920431 1.0130802
0.17491691 -0.018747762 1.0099555
0.17989555 -0.02175295 1.0106076
0.1374843 -0.017100405 1.0191338
0.14034808 -0.016915552 1.0193468
0.14616384 -0.016232239 1.0184965
0.15071699 -0.016004836 1.0177391
0.15798466 -0.016415413 1.0167233
0.16076404 -0.01647545 1.0156635
0.16454284 -0.016878262 1.0145191
0.12727101 -0.14298686 0.95349413
0.13696742 -0.14357799 0.95038432
0.14067562 -0.14412473 0.95074648
0.14507003 -0.14389025 0.94990116
0.14817046 -0.14319101 0.94860584
0.1547897 -0.14260273 0.94843078
0.15910827 -0.14135791 0.94767958
0.11271976 -0.13899466 0.95796084
0.1164009 -0.13970287 0.95540011
0.12113482 -0.14139763 0.95457006
0.16683039 -0.13902965 0.94749254
0.17195763 -0.13763316 0.94845796
0.17405194 -0.13690846 0.94889003
0.10414302 -0.13492396 0.96164453
0.10584636 -0.13581833 0.96089953
0.1763991 -0.13516526 0.94813544
0.18019719 -0.13423628 0.95015222
0.10147429 -0.13354786 0.96361804
0.18595549 -0.13105527 0.95149982
0.094020821 -0.12760372 0.9668867
0.096797325 -0.12953049 0.96425337
0.19265543 -0.12550309 0.95225883
0.19429597 -0.12350654 0.95205665
0.088867053 -0.12299008 0.97159922
0.091335379 -0.12557596 0.96982342
0.1983034 -0.11964731 0.95347917
0.086616024 -0.12086675 0.97516751
0.20275839 -0.11496475 0.95574784
0.20388068 -0.11300885 0.95565802
0.082502834 -0.11443486 0.97692019
0.20651115 -0.10959444 0.95742542
0.080592699 -0.11109591 0.98011392
0.081279412 -0.11216318 0.97828728
0.20917661 -0.10613161 0.96027458
0.077900372 -0.1050126 0.98290074
0.21108939 -0.10203461 0.96124285
0.077001885 -0.10253169 0.98686397
0.13692704 -0.099589802 0.97719991
0.14284055 -0.10070877 0.97556621
0.14659779 -0.10003119 0.97382176
0.15198231 -0.099568136 0.9744491
0.21305104 -0.097191744 0.96287125
0.12910156 -0.094540477 0.98027962
0.13327593 -0.097506516 0.97796088
0.15836872 -0.096631132 0.97520071
0.16126671 -0.094370648 0.97579348
0.21498044 -0.093251191 0.96637815
0.075258143 -0.094527252 0.99123311
0.12681009 -0.092013076 0.98341727
0.16469134 -0.089755602 0.97635412
0.2160359 -0.087964252 0.96771216
0.074868791 -0.090963349 0.99334383
0.16712585 -0.086984724 0.98004121
0.075172588 -0.089155033 0.99723548
0.16846335 -0.081048101 0.98241669
0.21773161 -0.079414807 0.97419286
0.074861996 -0.082717367 0.99818575
0.12452025 -0.079128534 0.99092585
0.16852832 -0.079765685 0.98364615
0.217935 -0.076323397 0.97640407
0.07574223 -0.075312212 1.0009356
0.12595445 -0.074818581 0.99304873
0.16695563 -0.072459631 0.98583996
0.21769044 -0.072107166 0.97836584
0.077097178 -0.072528504 1.0053983
0.12863721 -0.072382651 0.99690527
0.16603249 -0.071083143 0.98927307
0.21753058 -0.068943769 0.98125362
0.077336714 -0.07045202 1.005192
0.077796444 -0.066951469 1.0051244
0.13134503 -0.068369299 0.99684715
0.13483393 -0.06618084 0.99804527
0.16067784 -0.065752268 0.9935903
0.16258189 -0.066963159 0.99207193
0.21629862 -0.062769711 0.98298436
0.079390906 -0.065639116 1.0092844
0.13752533 -0.063492648 0.99680793
0.14527291 -0.061994996 0.99746907
0.14931794 -0.060736008 0.99503034
0.081813045 -0.061078012 1.0124261
0.21330625 -0.053891402 0.98953193
0.083018251 -0.058923647 1.0133092
0.21261178 -0.052995581 0.99347365
0.086627342 -0.052388918 1.0151211
0.20986456 -0.047486261 0.99426091
0.089844942 -0.047778692 1.0168377
0.20591623 -0.042436983 0.99998486
0.09475062 -0.042810287 1.0194716
0.20162974 -0.03737263 1.0020766
0.20380107 -0.03966732 1.0003465
0.19936402 -0.036113631 1.0061321
0.10704853 -0.03159336 1.0213774
0.19430046 -0.031246977 1.0072857
0.10907049 -0.030744875 1.0224092
0.11208718 -0.029533243 1.0235529
0.11584684 -0.028094003 1.0248919
0.18243742 -0.024520257 1.0131164
0.11819249 -0.02547938 1.0229125
0.12136219 -0.025152843 1.0246344
0.17084327 -0.020548962 1.0170827
0.17629047 -0.021485796 1.0140444
0.17986213 -0.02352423 1.0142626
0.136232 -0.020219818 1.0238438
0.14077142 -0.019643281 1.023895
0.15214056 -0.018307105 1.0214834
0.15626685 -0.018740211 1.0214018
0.16056493 -0.018955145 1.0203072
0.16538829 -0.019857047 1.0195692
0.13111711 -0.14466064 0.95459908
0.13817164 -0.14679955 0.95575213
0.14086802 -0.1470017 0.95567173
0.14667921 -0.14576341 0.9530192
0.15268047 -0.14552428 0.95278937
0.1561382 -0.14577854 0.95392936
0.16048984 -0.14474839 0.95350325
0.11318163 -0.14194354 0.96343869
0.11801089 -0.14358881 0.96151876
0.12158568 -0.14460625 0.96036565
0.16424817 -0.14283338 0.95211959
0.17278987 -0.13959022 0.95190769
0.10681181 -0.13843128 0.96503806
0.10962363 -0.13899717 0.96193755
0.17726934 -0.13721277 0.95177931
0.1813129 -0.13562535 0.9531073
0.099151179 -0.13377598 0.96891057
0.10246097 -0.13604487 0.96739173
0.18909723 -0.13210818 0.9563151
0.09446574 -0.12972255 0.97106546
0.097494259 -0.13335434 0.97187537
0.19317445 -0.12616923 0.95377827
0.19518915 -0.12462045 0.95469975
0.089553341 -0.12531662 0.97563219
0.091602415 -0.12798034 0.97549206
0.19820841 -0.12284607 0.9570995
0.19988142 -0.12223749 0.95907491
0.087258428 -0.12274539 0.9780184
0.2036929 -0.11853986 0.96142846
0.083749488 -0.11816069 0.98229909
0.20683868 -0.11284545 0.96143097
0.081335992 -0.11349168 0.98412031
0.082339942 -0.11545672 0.98340195
0.20943896 -0.10885432 0.96348459
0.21239325 -0.10395274 0.96641636
0.078520052 -0.1072799 0.9887569
0.13595316 -0.10052137 0.98018247
0.13961725 -0.10281273 0.98128086
0.14356224 -0.10253357 0.97850895
0.14916597 -0.10236555 0.97794867
0.15270203 -0.10227636 0.97894728
0.21405427 -0.10055606 0.96837175
0.077234164 -0.10311022 0.99244314
0.077348828 -0.10353971 0.99208331
0.13123065 -0.09804634 0.98326176
0.13357061 -0.099795982 0.982472
0.21585296 -0.095124155 0.97057921
0.12922196 -0.096446991 0.98530918
0.16444492 -0.094425067 0.98115468
0.075777449 -0.093540698 0.99855119
0.12530689 -0.089289777 0.9899199
0.16824913 -0.087615296 0.98400086
0.2175502 -0.087550223 0.97407967
0.075477339 -0.088450238 0.99976301
0.12487345 -0.08779557 0.98996997
0.16889058 -0.084944285 0.98549438
0.21841954 -0.082219146 0.97789723
0.16919549 -0.080545187 0.98897761
0.21864031 -0.078283153 0.98037827
0.076404616 -0.081984207 1.0058576
0.12652059 -0.076670259 0.99613643
0.1683065 -0.076558568 0.98994243
0.21812397 -0.073209181 0.98113161
0.077524245 -0.075227275 1.0084324
0.12919058 -0.074155249 0.99976033
0.16541265 -0.07150799 0.99460089
0.21778385 -0.068701141 0.98580474
0.078504436 -0.0717455 1.0102539
0.078810267 -0.069634087 1.0102358
0.13205411 -0.071077935 1.0011972
0.13427356 -0.068531133 1.0006001
0.21777041 -0.068199284 0.98775852
0.14138845 -0.065479964 1.0019759
0.14698735 -0.065077603 1.0028193
0.14944534 -0.064594693 1.0017513
0.15793428 -0.066814072 1.0003884
0.2162253 -0.062150616 0.99079168
0.082497239 -0.064046144 1.0167596
0.21435089 -0.057309177 0.99587888
0.083371043 -0.06035652 1.0155085
0.084942885 -0.057083387 1.0161659
0.21203221 -0.0525693 0.99780899
0.086603738 -0.054633163 1.0175509
0.20949858 -0.048083834 0.99911857
0.091655791 -0.048951473 1.021444
0.20842111 -0.046910159 1.0017749
0.094356306 -0.046692654 1.023348
0.095384553 -0.045015864 1.0230918
0.20273577 -0.040473707 1.0067239
0.20367061 -0.041391794 1.0057791
0.099068806 -0.042924181 1.0261079
0.2000621 -0.037722338 1.0082521
0.10624859 -0.036078773 1.0265517
0.19302398 -0.03240503 1.0127442
0.19409226 -0.032649044 1.0110747
0.11336993 -0.031615302 1.0276295
0.1169135 -0.030510608 1.0292029
0.18441623 -0.028467955 1.018698
0.18489426 -0.028282654 1.0175679
0.18968518 -0.030313592 1.0143416
0.12141606 -0.027872244 1.0286741
0.12748431 -0.02518048 1.0281315
0.16904448 -0.022218263 1.0215362
0.17129995 -0.022997322 1.0214065
0.17537208 -0.023677496 1.0192596
0.18096052 -0.02588875 1.017801
0.13472335 -0.024742624 1.030547
0.1370656 -0.02360047 1.029452
0.14166713 -0.022065181 1.0279802
0.14797373 -0.021348752 1.0270818
0.15186861 -0.020129021 1.024681
0.16202636 -0.021751223 1.0247293
0.16765936 -0.023059508 1.024122
0.12689625 -0.14695843 0.96101075
0.13368642 -0.14965755 0.96245474
0.13738438 -0.14769167 0.95761234
0.14399987 -0.14851454 0.95775366
0.1478868 -0.14895912 0.95836788
0.15247144 -0.14861198 0.95780724
0.15444259 -0.14656961 0.95479786
0.16024303 -0.14704266 0.95703739
0.11868954 -0.14565805 0.96495372
0.12142773 -0.14676134 0.96461064
0.16407919 -0.14555845 0.95624632
0.16746849 -0.14452922 0.95621639
0.17038627 -0.14302151 0.95552385
0.17525502 -0.1423585 0.95768368
0.11176686 -0.1430468 0.96749961
0.17832719 -0.14076547 0.95768905
0.18091618 -0.13882238 0.95721
0.10048159 -0.13601026 0.97124434
0.1031541 -0.13856854 0.97179514
0.18732373 -0.13473001 0.95791596
0.19179812 -0.13206404 0.95951498
0.094870038 -0.13259283 0.97731149
0.097519383 -0.13534041 0.97673941
0.19654636 -0.12901494 0.96206909
0.090544224 -0.12784049 0.97907931
0.093381643 -0.13091873 0.97736341
0.19893029 -0.12569112 0.96161765
0.2010408 -0.12384148 0.9628334
0.086836718 -0.12399413 0.98413706
0.089556038 -0.12785123 0.98305976
0.20441379 -0.11851837 0.96273649
0.085057847 -0.12127881 0.9853909
0.20721313 -0.11557323 0.96504211
0.081874207 -0.11569755 0.98929363
0.080566198 -0.11277971 0.98996371
0.14014742 -0.10445262 0.9839341
0.14424807 -0.10541157 0.98339152
0.14758451 -0.1049372 0.98201245
0.15499268 -0.10436056 0.98331404
0.21514571 -0.10268545 0.97321248
0.077597916 -0.104036 0.99602604
0.13220525 -0.10150952 0.98934555
0.1352998 -0.10235149 0.98492676
0.16003971 -0.10250697 0.98493606
0.1630881 -0.098063663 0.98292416
0.2167037 -0.098892488 0.97570568
0.076656163 -0.098080136 1.0007986
0.12983657 -0.09928941 0.99132359
0.16591823 -0.096716098 0.98621732
0.21745181 -0.0942467 0.97616422
0.076386809 -0.096431382 1.0006567
0.16875815 -0.090831488 0.98787558
0.21865772 -0.088886179 0.97945142
0.076437078 -0.090773366 1.0054919
0.12583537 -0.090095744 0.99652719
0.16972467 -0.087384649 0.98991787
0.21913172 -0.087292627 0.98164421
0.12598374 -0.085063182 0.99969953
0.17020142 -0.084106416 0.99417108
0.21947522 -0.08068952 0.98505354
0.076982386 -0.081907704 1.0083911
0.12752554 -0.079896472 1.0015663
0.16954467 -0.080588453 0.99419075
0.21940076 -0.07666526 0.98898274
0.077366903 -0.079704776 1.0096045
0.13160929 -0.074563518 1.0046418
0.16673419 -0.074109606 0.9958939
0.21887816 -0.07259763 0.99013102
0.07875374 -0.074375905 1.0125859
0.080060504 -0.073612563 1.0169721
0.13564582 -0.071982853 1.0068743
0.1623264 -0.069964692 0.99989736
0.16300741 -0.070095211 0.99869806
0.21775004 -0.067056142 0.9950974
0.21845058 -0.070076995 0.99285328
0.081435688 -0.069813579 1.0185838
0.1412954 -0.069085568 1.0073249
0.14834115 -0.067288399 1.0064726
0.15024759 -0.066954069 1.005567
0.21660253 -0.06333632 0.99546123
0.082159355 -0.066706039 1.0180223
0.21563533 -0.061087456 0.99927133
0.085026033 -0.06297002 1.0218997
0.087936454 -0.057805967 1.0234824
0.092348561 -0.050921068 1.0249578
0.20771334 -0.04730393 1.0067329
0.094674237 -0.048338119 1.0257926
0.097948581 -0.046293486 1.0286778
0.20448248 -0.043730378 1.0093687
0.098981373 -0.044884622 1.0284077
0.10166544 -0.0422328 1.0288973
0.19888356 -0.038987868 1.0149295
0.20086123 -0.040225416 1.0123831
0.10861222 -0.038256381 1.0320218
0.19264576 -0.034412116 1.0180043
0.19595872 -0.035534572 1.0137521
0.18298119 -0.028883804 1.0215007
0.18653627 -0.03118206 1.021295
0.12065762 -0.031859431 1.0339748
0.12185953 -0.030359583 1.0326691
0.12968203 -0.027378337 1.032539
0.17736076 -0.027162293 1.024232
0.18174149 -0.028330211 1.0218689
0.13800226 -0.024592049 1.0313078
0.14390656 -0.025006309 1.0330908
0.14985763 -0.024946621 1.0331165
0.15497823 -0.024438394 1.0316151
0.15893154 -0.02438396 1.0305613
0.16517346 -0.025419107 1.0298914
0.16804889 -0.0255142 1.0284253
0.12757729 -0.14921099 0.96477968
0.13171968 -0.15094088 0.96573651
0.13801856 -0.15150389 0.96405107
0.1431942 -0.15187994 0.9636879
0.14802246 -0.15146576 0.96256047
0.15435934 -0.14977458 0.95997834
0.16226009 -0.14902151 0.96083599
0.11575538 -0.14612283 0.96895146
0.11806107 -0.14774898 0.96977681
0.12367923 -0.14875571 0.96671647
0.12677132 -0.15094024 0.96856308
0.16429588 -0.14869882 0.96118331
0.16808023 -0.14663087 0.95975566
0.17249803 -0.14593996 0.96116304
0.17659168 -0.14425495 0.96141082
0.11067834 -0.14455704 0.97229236
0.18306239 -0.14070347 0.96179008
0.1008043 -0.13949428 0.97876757
0.1049214 -0.14227067 0.97682488
0.18965423 -0.13731244 0.96389985
0.19263847 -0.13432799 0.96349269
0.095168479 -0.13472784 0.98196429
0.097285591 -0.13664594 0.98069012
0.19535026 -0.13308302 0.96542954
0.19842459 -0.13037917 0.96641314
0.090810992 -0.12993632 0.98403597
0.094188698 -0.13383271 0.98255473
0.19918075 -0.12880377 0.96569252
0.089875616 -0.12882768 0.98457402
0.2036867 -0.12381582 0.96726799
0.20657326 -0.12152702 0.97005367
0.085372128 -0.12308718 0.99017787
0.20834653 -0.11869981 0.97062832
0.21024382 -0.11419544 0.97046071
0.2125365 -0.11259736 0.9743017
0.081454337 -0.11581177 0.9958539
0.2134971 -0.11100666 0.97530025
0.079335153 -0.11011783 0.99901861
0.13984516 -0.10634601 0.98794496
0.14328642 -0.10843948 0.98925155
0.14892125 -0.10792527 0.98706305
0.15467338 -0.10652081 0.98653561
0.21548435 -0.10703788 0.97743964
0.078162298 -0.10546371 1.0015292
0.078987353 -0.10887028 1.0003082
0.136678 -0.10644189 0.99180919
0.16067755 -0.10320905 0.98644429
0.16335243 -0.10283978 0.98926634
0.21719341 -0.1000654 0.97820133
0.077498972 -0.10119659 1.0046978
0.12895721 -0.098990008 0.99455059
0.16787264 -0.096254557 0.9900015
0.077173084 -0.097294733 1.0074612
0.1277324 -0.09668979 0.99814516
0.16876006 -0.094952248 0.99102789
0.21932182 -0.090849467 0.98293149
0.07710813 -0.093311362 1.00898
0.12659894 -0.092171714 1.001315
0.17023751 -0.089604728 0.99272692
0.21978475 -0.088898048 0.98520339
0.077455357 -0.089631028 1.0124357
0.12691878 -0.08658278 1.0040491
0.17092969 -0.087858781 0.99646014
0.22004411 -0.082931727 0.98793024
0.12829721 -0.08373405 1.0066782
0.16981171 -0.081367202 0.99868441
0.22006306 -0.078917384 0.99241316
0.079722486 -0.080059551 1.0192356
0.13067913 -0.07888072 1.0078707
0.16820738 -0.078535207 1.0026482
0.21939768 -0.074238405 0.99353606
0.079990812 -0.076530382 1.0183934
0.1340073 -0.074960046 1.0088161
0.13942809 -0.073296592 1.0122887
0.1633753 -0.074212894 1.0076169
0.16498856 -0.074591048 1.0047144
0.21850021 -0.069882266 0.99469179
0.14081384 -0.072496384 1.0122966
0.14732353 -0.069570333 1.0100852
0.15249789 -0.069184273 1.0088314
0.15703325 -0.070037745 1.0077271
0.084352255 -0.067536019 1.0245734
0.21530393 -0.060725696 1.0029645
0.085160263 -0.065869473 1.0249554
0.086150594 -0.062860191 1.0245117
0.089033924 -0.05941955 1.0274645
0.21111478 -0.053045206 1.0068862
0.090686075 -0.05633359 1.0277324
0.094386175 -0.051953457 1.0295331
0.20674434 -0.048312251 1.013837
0.094892256 -0.052408975 1.0309008
0.098054796 -0.048269995 1.0312107
0.20314485 -0.044548322 1.0167667
0.20569301 -0.046431053 1.0124711
0.1014305 -0.046613403 1.034037
0.20035881 -0.042539071 1.0198001
0.20245555 -0.043654814 1.0165945
0.10522361 -0.042575419 1.0338905
0.11068423 -0.037773091 1.0335987
0.1946211 -0.037310325 1.0207973
0.11188339 -0.038918726 1.0364287
0.11213298 -0.038282253 1.0358026
0.18314275 -0.031298883 1.0262855
0.18600416 -0.032196883 1.0242929
0.12104435 -0.034342699 1.0378642
0.12530161 -0.033291224 1.0391723
0.12976897 -0.029996254 1.0365913
0.13197915 -0.028782822 1.035773
0.17133439 -0.02916914 1.0331026
0.17979753 -0.030156368 1.0277888
0.13366683 -0.028767074 1.0365437
0.13850999 -0.027715502 1.0364093
0.14608321 -0.027844045 1.0379915
0.14955303 -0.02594493 1.0347942
0.15538342 -0.026381675 1.0349091
0.1600821 -0.027305709 1.0353976
0.16420379 -0.026540695 1.0324254
0.13285401 -0.15295614 0.96883452
0.13836925 -0.15479036 0.96969497
0.1433647 -0.15353206 0.96650618
0.14814349 -0.15380998 0.96648139
0.16094369 -0.15158905 0.96446115
0.1649991 -0.15201057 0.96659881
0.12006181 -0.1509445 0.97408718
0.16608207 -0.14923179 0.96279198
0.17734134 -0.14789015 0.96723783
0.10716549 -0.14517732 0.97914195
0.10948162 -0.14682673 0.97901922
0.11399255 -0.14913118 0.97727996
0.17959574 -0.14518321 0.96503794
0.18325141 -0.14299574 0.96516609
0.10192392 -0.14187466 0.98191416
0.10567351 -0.14378256 0.9788211
0.1958494 -0.13430537 0.96765107
0.19747612 -0.1337022 0.96919852
0.092875063 -0.13414852 0.98824382
0.094479427 -0.13580199 0.9869048
0.20123351 -0.13011242 0.97054082
0.20330024 -0.1277619 0.97109526
0.088860825 -0.13006182 0.99359733
0.20693994 -0.1232685 0.9726572
0.086148083 -0.12500286 0.99194348
0.20822951 -0.12177192 0.97358823
0.082594223 -0.11919173 0.99979132
0.21391451 -0.11364489 0.97868013
0.080473907 -0.11377831 1.0042688
0.14139719 -0.10991445 0.99325317
0.15009572 -0.11075311 0.99183327
0.15585345 -0.10940576 0.9913879
0.15866759 -0.10873681 0.99224877
0.2165906 -0.10576081 0.97985667
0.078964099 -0.10812894 1.0055143
0.13353169 -0.10619427 0.99755281
0.13580257 -0.10738857 0.99530703
0.16223781 -0.10615157 0.99208748
0.16430838 -0.10390481 0.99191582
0.21821362 -0.10247391 0.98319435
0.078464717 -0.10530716 1.0077465
0.13104166 -0.10395455 1.0002748
0.16639325 -0.10201298 0.99300832
0.2194555 -0.098811097 0.98602855
0.077810675 -0.10068408 1.0089568
0.12829232 -0.098778442 1.0022944
0.16925488 -0.098884486 0.99574673
0.22015527 -0.095131643 0.98806834
0.077690236 -0.094304882 1.0126843
0.17124268 -0.092685565 0.99812359
0.22060369 -0.090516925 0.98968273
0.12748028 -0.088712938 1.0072623
0.17127344 -0.088663377 0.99850249
0.22083673 -0.086283006 0.9918465
0.078689724 -0.088311538 1.017988
0.12863635 -0.085022897 1.0088843
0.16998041 -0.08255586 1.0049754
0.22077857 -0.08141496 0.99602908
0.079352759 -0.085287444 1.0202558
0.13181941 -0.081639133 1.0130486
0.16884913 -0.08067666 1.0062968
0.080740258 -0.079744436 1.0228809
0.1375678 -0.075267948 1.0130326
0.16290587 -0.075277291 1.0111723
0.16531143 -0.077350207 1.0107459
0.2191997 -0.071805574 1.0018225
0.21949123 -0.073165372 0.99969536
0.083014168 -0.073817827 1.0262189
0.14491847 -0.071615979 1.013038
0.14740132 -0.071851924 1.0140059
0.15180613 -0.071103923 1.0126244
0.15928005 -0.073961698 1.0134151
0.21882561 -0.070483558 1.0031312
0.084865883 -0.070191607 1.0283554
0.086311184 -0.068373524 1.0300816
0.21419795 -0.059854079 1.0110487
0.21547465 -0.061837502 1.0068944
0.090328909 -0.060087398 1.030885
0.21304272 -0.058379617 1.0139072
0.093870938 -0.056550175 1.0339069
0.20934193 -0.052557517 1.0154148
0.097012125 -0.053208467 1.0353369
0.098183632 -0.050974928 1.0346648
0.20404573 -0.046745174 1.0196635
0.2066015 -0.049774226 1.0185658
0.10095143 -0.048584525 1.0357916
0.19957308 -0.043720234 1.0248185
0.20213343 -0.045935802 1.0234045
0.10617486 -0.045588147 1.0389969
0.19534601 -0.040418435 1.0264944
0.19741172 -0.042052604 1.0259517
0.11199444 -0.040525369 1.0387095
0.11610956 -0.039281145 1.0408278
0.11841954 -0.038034797 1.0411373
0.18396188 -0.033350203 1.0295123
0.18919075 -0.036210965 1.0280555
0.12554955 -0.03395047 1.0403057
0.12980574 -0.033141676 1.0414282
0.13302112 -0.032487817 1.0419408
0.17342341 -0.030365318 1.0338838
0.17841132 -0.032635499 1.034037
0.18267429 -0.033007722 1.0303233
0.13688932 -0.030121386 1.0397258
0.14107816 -0.030128865 1.0408992
0.14469485 -0.029194253 1.0400643
0.15010831 -0.02845861 1.0390134
0.15579888 -0.028323077 1.0381982
0.16111949 -0.028145701 1.0365964
0.13978952 -0.15669064 0.97262651
0.15481152 -0.15633258 0.97084254
0.15933935 -0.15483007 0.96914423
0.16378264 -0.15381218 0.96884799
0.11988884 -0.15298137 0.97830087
0.12594129 -0.15476498 0.97649693
0.1288612 -0.15518865 0.97514349
0.16558543 -0.15314335 0.96860349
0.16864792 -0.15206625 0.96831673
0.1103744 -0.14893222 0.98218268
0.18132611 -0.14775862 0.97012347
0.18543845 -0.1452644 0.97032106
0.10521414 -0.1459748 0.98467237
0.1888369 -0.1429099 0.97054708
0.19267938 -0.1400778 0.97101939
0.097960509 -0.14013182 0.9877333
0.19726102 -0.13726453 0.97331589
0.1984321 -0.13529094 0.97251946
0.093144752 -0.13559179 0.99133331
0.096165463 -0.13932203 0.99092972
0.20087004 -0.13335343 0.973782
0.092071973 -0.13526385 0.99447501
0.20405085 -0.12928624 0.97410178
0.087911822 -0.12987302 0.99843729
0.21294555 -0.12025566 0.98256105
0.21368387 -0.11853031 0.9826436
0.21498558 -0.11448367 0.98231
0.081059314 -0.11563085 1.0064996
0.14225253 -0.11188156 0.99638194
0.14644694 -0.11350545 0.99710625
0.15196024 -0.11327872 0.99615276
0.15583661 -0.11161211 0.99491906
0.21690345 -0.11005865 0.98401701
0.079430364 -0.10936046 1.0093379
0.080461644 -0.1136329 1.0082669
0.13426884 -0.10850482 1.0013701
0.13630542 -0.10927743 0.99857181
0.16041863 -0.1104608 0.99605709
0.16499832 -0.10743108 0.9972797
0.21919599 -0.10584111 0.98865461
0.13143986 -0.10644097 1.0061892
0.16819915 -0.10439391 0.99897724
0.2199825 -0.1004412 0.98893064
0.079291321 -0.10608958 1.0159243
0.12980793 -0.10355584 1.0079871
0.17019866 -0.10130561 1.0002648
0.22149211 -0.095981427 0.99439204
0.079094633 -0.10056173 1.0194153
0.12814184 -0.097554326 1.0090083
0.17271259 -0.094739325 1.0054613
0.22155815 -0.095823236 0.99476492
0.078776821 -0.093221001 1.0195773
0.12827957 -0.093153074 1.012117
0.1719742 -0.089011595 1.0049231
0.22175407 -0.089343503 0.9967705
0.07946337 -0.093037196 1.022799
0.12909506 -0.090055183 1.0139291
0.22151549 -0.083420351 1.0005455
0.1322943 -0.084261701 1.0167085
0.16844602 -0.081517912 1.0113072
0.080995731 -0.082461283 1.0252819
0.082026049 -0.079240367 1.0271496
0.13839599 -0.077974923 1.0175614
0.16346535 -0.076985776 1.0136697
0.2201297 -0.074829213 1.0065228
0.22051877 -0.076623261 1.0050408
0.083651073 -0.076982565 1.0305346
0.1444521 -0.07660412 1.0204636
0.14995256 -0.074730515 1.0190202
0.153181 -0.074120626 1.0174087
0.15855987 -0.07443513 1.0149632
0.21985245 -0.073749416 1.0085983
0.085621357 -0.073219791 1.0327789
0.21779586 -0.067966565 1.0100358
0.090355381 -0.065866761 1.0369184
0.21226403 -0.057933573 1.0176398
0.092630945 -0.061168831 1.0367742
0.093942881 -0.059668623 1.0375934
0.2098358 -0.055012498 1.0206585
0.097197369 -0.056209974 1.0391438
0.099775776 -0.052523952 1.0389876
0.20695339 -0.050978381 1.0206667
0.10160329 -0.052058853 1.0410175
0.10591341 -0.048593409 1.0425417
0.20049895 -0.046117485 1.0283875
0.20356111 -0.048562024 1.0260301
0.10720868 -0.047409475 1.0426052
0.19542059 -0.042077009 1.0301026
0.19815694 -0.043341596 1.0273476
0.11254448 -0.04287035 1.0424553
0.11622369 -0.042049151 1.0447942
0.18758142 -0.038164228 1.034721
0.19071735 -0.039368894 1.0324894
0.12181955 -0.038295574 1.0441713
0.12684572 -0.036866002 1.0454423
0.13161297 -0.035709713 1.0462143
0.18066543 -0.03520494 1.036887
0.1829318 -0.036454786 1.0370578
0.14614584 -0.031168453 1.043467
0.15521351 -0.031497661 1.0437884
0.16012986 -0.031963222 1.0436792
0.16413604 -0.0316188 1.0416909
0.13148163 -0.15751311 0.97791529
0.13425322 -0.15824664 0.97779953
0.14210244 -0.1592751 0.976614
0.14442337 -0.16018365 0.97779059
0.15236461 -0.1583291 0.97402221
0.1556426 -0.15796399 0.97355688
0.15994482 -0.15781739 0.97413576
0.16476031 -0.15670459 0.973836
0.11739844 -0.15483253 0.98480368
0.12112802 -0.15586135 0.98285061
0.12588178 -0.15637815 0.97962755
0.16893458 -0.15471227 0.97249901
0.1754431 -0.15309574 0.97364205
0.11184647 -0.15186752 0.98624355
0.11523554 -0.15392995 0.98563349
0.18589848 -0.14728206 0.97357887
0.18800738 -0.14664488 0.97468615
0.10308754 -0.14663568 0.99063778
0.10651409 -0.1482881 0.9874388
0.18845436 -0.14500977 0.97296393
0.19457224 -0.14095026 0.97445571
0.099162184 -0.14355448 0.99305874
0.10050847 -0.14484869 0.99256182
0.19983016 -0.13821791 0.97812521
0.093516991 -0.1376117 0.99567676
0.096114628 -0.14075744 0.99485719
0.20066237 -0.13653857 0.97721571
0.090321809 -0.13506982 1.0024487
0.20629832 -0.13089108 0.97990251
0.08862976 -0.13213843 1.0021313
0.085381866 -0.12679523 1.0071959
0.085593358 -0.12683497 1.0052397
0.21278012 -0.12130137 0.98317105
0.21461357 -0.12005241 0.98627037
0.21557733 -0.11857472 0.987261
0.081938721 -0.11840017 1.0119312
0.14350605 -0.11521444 1.0018321
0.14811403 -0.11551456 1.0001557
0.1528298 -0.11543631 0.99981493
0.16008796 -0.11341074 1.0000733
0.21805684 -0.11199993 0.98894989
0.081151552 -0.11587834 1.0117141
0.13461719 -0.11082631 1.0062962
0.13880497 -0.11368001 1.0040305
0.16076492 -0.11306955 1.0001041
0.16544908 -0.10885795 0.99968642
0.21948856 -0.11059965 0.99251115
0.21975544 -0.10800264 0.99184412
0.08050783 -0.1124084 1.017217
0.13311186 -0.10944956 1.0077695
0.16910286 -0.1052377 1.0015001
0.22093156 -0.10356718 0.9939791
0.079898141 -0.10666813 1.021549
0.12955537 -0.10290847 1.0103763
0.17110056 -0.10298863 1.0043814
0.2219836 -0.098994754 0.99738115
0.079292998 -0.099584311 1.0214422
0.12888366 -0.098524995 1.0152709
0.17258096 -0.096750714 1.0052975
0.22197302 -0.094348557 0.99712706
0.080034509 -0.097754806 1.0264938
0.12888208 -0.095519841 1.0153332
0.17333224 -0.09410014 1.010528
0.22252408 -0.091300055 1.0011969
0.080010176 -0.092691705 1.0252184
0.12988831 -0.090916239 1.0170188
0.17246866 -0.090078026 1.0116551
0.22240087 -0.086129248 1.0055535
0.080543533 -0.089302681 1.0268152
0.13319397 -0.087497912 1.0220151
0.16944388 -0.084325053 1.0151442
0.17121318 -0.086738609 1.0133418
0.22253481 -0.085626468 1.0075865
0.14060315 -0.081078008 1.0242885
0.1650489 -0.080701262 1.0189683
0.22079508 -0.076883331 1.0116956
0.22131349 -0.079262376 1.0086304
0.084644213 -0.077803142 1.0340223
0.14411303 -0.078778408 1.0234941
0.14847261 -0.076980516 1.0224897
0.15957385 -0.078908987 1.0227793
0.22011168 -0.074659161 1.0139889
0.085845046 -0.074914299 1.0349487
0.21794672 -0.069077067 1.0161897
0.087769777 -0.070757583 1.0358443
0.089246802 -0.069471397 1.0382178
0.21755069 -0.068479083 1.0178204
0.091579847 -0.066755481 1.0404174
0.21372305 -0.061339568 1.0205274
0.093533114 -0.064484499 1.0421042
0.095164083 -0.062296666 1.0426922
0.21095148 -0.057160676 1.0223117
0.097917587 -0.059700374 1.044405
0.09985435 -0.05756991 1.0451212
0.20633984 -0.053313192 1.0296915
0.10320067 -0.053906761 1.0455799
0.10627052 -0.050048228 1.0448633
0.20154783 -0.047571823 1.0292648
0.11057265 -0.048804801 1.0483119
0.19733867 -0.044240244 1.0312868
0.19812071 -0.045589417 1.0327433
0.11959016 -0.043088358 1.0493184
0.18722162 -0.039535597 1.0381373
0.18961751 -0.041035894 1.0377854
0.19298215 -0.041728623 1.0339491
0.12451576 -0.04186368 1.0513157
0.12608401 -0.040697742 1.0506568
0.13039728 -0.038126688 1.0493453
0.17353781 -0.035509165 1.0435708
0.17488515 -0.035486717 1.0425668
0.18191072 -0.03828188 1.0418271
0.13820368 -0.037431449 1.0517037
0.14111358 -0.035537798 1.0495884
0.14748308 -0.03504733 1.0499908
0.1512924 -0.034242526 1.0487219
0.15681787 -0.034664422 1.0489981
0.16111165 -0.034778431 1.0483723
0.16543072 -0.035419863 1.0480251
0.13256808 -0.16145436 0.98457074
0.14097764 -0.16056138 0.97916746
0.14646374 -0.16141874 0.97957683
0.14914565 -0.16131094 0.97902465
0.15535393 -0.16046911 0.97762066
0.16269498 -0.15899189 0.97672665
0.16429064 -0.15831105 0.97610945
0.12193042 -0.15875408 0.98773682
0.12665676 -0.15908629 0.98422039
0.12980936 -0.16023169 0.98402309
0.16750962 -0.15755139 0.97624713
0.1716371 -0.15753189 0.97807986
0.1769751 -0.1552662 0.97780758
0.10940248 -0.15179056 0.98987967
0.11203693 -0.15423748 0.99105543
0.11599284 -0.15637055 0.98974848
0.18203586 -0.15290679 0.97802258
0.18443321 -0.15319438 0.98047823
0.10462681 -0.14932409 0.99353731
0.10632582 -0.15102075 0.99399555
0.1925603 -0.14640397 0.97924149
0.19475153 -0.14469588 0.97954631
0.099548794 -0.14532521 0.99650741
0.10254935 -0.1481697 0.99558192
0.19646367 -0.14418148 0.98102003
0.19965781 -0.14150266 0.98195851
0.094779529 -0.14185615 1.0029948
0.096516766 -0.14242016 0.99805665
0.2023636 -0.13848917 0.98224133
0.20608819 -0.1367355 0.98616868
0.091864914 -0.13777573 1.0034802
0.20666845 -0.13483675 0.9849503
0.21186885 -0.12777053 0.98741227
0.087273836 -0.13146746 1.010516
0.21389776 -0.12509727 0.98940569
0.21600734 -0.12079671 0.99028224
0.083730027 -0.12396956 1.0157195
0.14137892 -0.11786846 1.0092326
0.14480169 -0.11792493 1.0060865
0.14831433 -0.11808456 1.0046425
0.15697083 -0.11772651 1.0046725
0.21890549 -0.11432955 0.99324656
0.082002826 -0.11858737 1.0169888
0.13604936 -0.11393107 1.0101975
0.13708338 -0.11395729 1.007617
0.16298467 -0.11546792 1.0054963
0.16682729 -0.11233822 1.0059406
0.081063449 -0.11365721 1.0215752
0.13313742 -0.11035801 1.0106442
0.16772537 -0.1102179 1.0046011
0.22159554 -0.10702577 0.99821103
0.080261238 -0.10955308 1.0206196
0.13078101 -0.10681293 1.0155752
0.2218394 -0.10285658 0.99777281
0.080031894 -0.10374957 1.0244786
0.12938194 -0.1016511 1.0155747
0.17339687 -0.10127553 1.0102956
0.22320612 -0.097224154 1.0038539
0.12976405 -0.097839341 1.019855
0.1739178 -0.096605517 1.0134054
0.22359216 -0.092949696 1.0078526
0.081339672 -0.095824637 1.0321929
0.13038205 -0.093251035 1.0203867
0.17287342 -0.091410741 1.0146738
0.22313532 -0.088810772 1.0091003
0.081876911 -0.091146216 1.0330625
0.13375013 -0.090942249 1.0267482
0.17047946 -0.087450139 1.0204537
0.22294483 -0.086020418 1.0119567
0.083613925 -0.085662365 1.036607
0.13881515 -0.084083803 1.0264817
0.16470785 -0.082085095 1.0228328
0.16770713 -0.085171886 1.0239303
0.22133604 -0.078699768 1.0134732
0.083707273 -0.084043272 1.0358475
0.14625967 -0.080120184 1.0266984
0.15364861 -0.079654291 1.027099
0.15973738 -0.080431633 1.0256013
0.22046733 -0.076086551 1.0196186
0.086844467 -0.079057671 1.0411202
0.21927027 -0.072799973 1.0187236
0.21721615 -0.068889894 1.0237556
0.092554256 -0.06893684 1.0447272
0.21374385 -0.062156845 1.0235238
0.093723632 -0.066327699 1.0444721
0.09537708 -0.065073684 1.0462137
0.21046443 -0.059190407 1.0307493
0.098071061 -0.061144851 1.0463434
0.10014345 -0.059099607 1.0473831
0.20642579 -0.054206491 1.0318987
0.10373136 -0.055648781 1.0484908
0.10652763 -0.055591494 1.0522947
0.20255093 -0.051511079 1.0364468
0.20476133 -0.052284218 1.0321386
0.11217118 -0.049568787 1.0510653
0.1951011 -0.046052292 1.0397245
0.20019443 -0.049178433 1.036622
0.11781095 -0.046585545 1.0525734
0.12012365 -0.044793054 1.0521843
0.18793429 -0.042313807 1.0429937
0.19223434 -0.04399408 1.0401475
0.12599842 -0.043165274 1.0542624
0.13414779 -0.039572045 1.0533264
0.13624795 -0.040528767 1.0557816
0.17339265 -0.037908837 1.0482314
0.17596509 -0.037965067 1.0465029
0.14193629 -0.038443144 1.0544434
0.15262792 -0.037046656 1.0534258
0.1589839 -0.036876664 1.0524623
0.16108167 -0.036876541 1.0520837
0.16587669 -0.035848469 1.0486259
0.17148188 -0.038574263 1.0508273
0.13298216 -0.16315532 0.98747194
0.13710931 -0.16350074 0.98596954
0.14302681 -0.16502208 0.98641807
0.14603946 -0.163412 0.98308265
0.15068679 -0.16389874 0.98334664
0.15663451 -0.16405092 0.98367184
0.16322011 -0.16202132 0.98169035
0.16425964 -0.16072583 0.97993529
0.11918423 -0.15897225 0.9911598
0.1230855 -0.16033165 0.98972446
0.12796584 -0.16235553 0.98948181
0.1306375 -0.16146019 0.98574561
0.173494 -0.15817963 0.98001939
0.17770137 -0.15734662 0.98135722
0.18065466 -0.15592752 0.98132473
0.11215824 -0.15660807 0.99597496
0.11721224 -0.15886796 0.9933396
0.18744081 -0.15291923 0.9828434
0.10460694 -0.15118796 0.99798882
0.10852812 -0.15468194 0.99810362
0.19306271 -0.14956398 0.98403406
0.19603643 -0.14656411 0.98352492
0.098914698 -0.14728026 1.0034447
0.1022601 -0.15003559 1.0009815
0.19847251 -0.14514686 0.98483199
0.20228265 -0.14285958 0.98734725
0.095393382 -0.14350374 1.0053693
0.20402013 -0.1390769 0.98560137
0.20568286 -0.13978761 0.98911643
0.091493927 -0.13833399 1.0071237
0.2079269 -0.13642791 0.98906517
0.089417547 -0.13580553 1.0107324
0.2120368 -0.13173552 0.99179173
0.08670523 -0.1310641 1.0143454
0.087814108 -0.13297556 1.0123029
0.21445945 -0.12799609 0.99348402
0.21611686 -0.12401081 0.99356234
0.08493913 -0.12738506 1.0177194
0.21679856 -0.1225766 0.99394768
0.083777048 -0.12429022 1.0207558
0.14319082 -0.12001769 1.0115732
0.14948419 -0.12025578 1.0081373
0.15361519 -0.12105627 1.0091447
0.15747942 -0.11965557 1.0078824
0.22011322 -0.11586359 0.99803537
0.081878126 -0.11737633 1.0220746
0.082932606 -0.12163118 1.0213411
0.16296649 -0.11810265 1.009087
0.16753823 -0.11482687 1.0100346
0.22113898 -0.11341423 0.99991596
0.081817172 -0.11581858 1.0267818
0.13350137 -0.11254779 1.016113
0.16995923 -0.11308527 1.0118359
0.22280018 -0.10821025 1.0036751
0.081343956 -0.11115679 1.0294871
0.13136213 -0.10865351 1.0205724
0.17381707 -0.10629113 1.0146675
0.22292866 -0.10557991 1.00343
0.081279099 -0.10944489 1.030376
0.13056757 -0.10479537 1.0228558
0.17445391 -0.10209355 1.0153401
0.22392529 -0.09980268 1.0077409
0.081214711 -0.10349476 1.0326846
0.13075793 -0.10081695 1.0250511
0.17486089 -0.099422567 1.0184283
0.2237964 -0.093975544 1.0087774
0.13174534 -0.096675776 1.0270928
0.17370459 -0.093956172 1.019931
0.22399542 -0.092013471 1.0131667
0.082061797 -0.094382167 1.0351683
0.13527782 -0.091610007 1.0303835
0.17139612 -0.08944428 1.0218079
0.2236333 -0.08819364 1.0154871
0.08427459 -0.086291403 1.039196
