# .PCD v0.7 - Point Cloud Data file format
VERSION 0.7
FIELDS x y z
SIZE 4 4 4
TYPE F F F
COUNT 1 1 1
WIDTH 1911
HEIGHT 1
VIEWPOINT 0 0 0 1 0 0 0
POINTS 1911
DATA ascii
-53.817001 2 0.44144249
-10.00979 0 0.9389565
-1.3791595 2 3.6193626
-49.497711 2 0.42398453
-44.917469 2 7.3335891
-60.934063 0 -3.8678699
18.112856 4.8917975 -1.9950266
-12.515793 0 -3.9129324
-5.1243711 2 -2.414269
27.770466 13.746334 -7.7770424
-5.4974823 2 0.55279791
-60.337185 0 -4.919436
-43.763004 2 -0.38491964
18.554344 4.0313239 4.8129454
43.993839 0.030010343 -3.2661185
30.564146 17.861511 -6.2244635
-13.241407 0 -9.0409956
6.7591352 2 -0.72102857
-34.152401 0 -4.8263636
-22.109287 0 5.7457919
-10.056995 2 -6.1483078
-33.072205 0 9.4416866
26.484007 14.73713 6.8304119
-36.308693 0 -4.3528352
16.131149 0 4.3604422
-62.289055 2 -5.1349173
2.898546 0 6.1174054
-36.290024 2 -0.071387783
32.796059 0 8.304286
24.643351 10.894721 7.7258778
22.895126 0 2.6858745
28.942801 0 0.01837635
36.387856 17.313814 -0.48019859
-7.7105875 0 1.9418069
-46.953964 0 -4.6418972
33.906548 16.195726 5.7454572
34.737862 17.635168 -4.1475387
-1.8700151 0 -7.9582248
-42.247597 0 6.995378
-32.866871 2 1.2166597
-37.455387 2 -7.177906
-30.781837 0 6.1307554
8.1475105 0 4.1017365
41.964577 2 6.5649385
1.9079876 0 -8.4772243
-21.915731 2 -8.5419617
14.19981 0 -1.4754097
-21.77545 0 -3.458982
14.212221 2 -5.6022425
-48.508209 0 -8.4800949
34.178429 0 8.1586494
42.121914 0 2.89147
-38.825935 0 -8.8949938
20.400129 9.8018007 2.4041104
35.029869 0 -7.7003956
23.323439 5.4140282 -9.6951065
-62.493492 2 4.503685
-3.0586991 0 -7.163362
3.5678036 0 9.5078897
-36.782875 2 3.6163204
34.984451 9.2496262 8.6505871
-60.254745 0 -3.0255353
15.912512 2 3.8592896
6.6324916 0 -7.796804
-61.236824 2 -3.9773722
-35.53759 2 -1.767373
-41.872269 2 6.7460604
-7.2737794 0 -6.0823045
-37.640083 2 -6.1594248
2.4105814 2 -2.9334874
-15.518854 2 -6.198925
33.180504 0 7.9259863
24.335798 16.457016 -4.0400829
8.9985056 0 -9.4564381
31.247383 0 -2.5642996
-26.500546 0 6.590291
2.7222495 0 -2.6929035
29.772079 14.148809 7.908895
30.911278 0 6.3999605
10.302623 0 -8.9291668
-1.7432003 2 -4.5239115
-31.486006 2 -5.7501316
-52.681595 0 -1.6007762
-35.805122 0 -2.1557403
32.300049 9.0818901 9.8419561
22.468807 0 -0.56220007
-42.30962 0 2.27896
-29.766539 2 -0.024729431
25.388206 21.039679 -1.8636938
37.872524 4.1713324 9.3165045
-43.60939 0 3.9474416
-59.388004 0 -1.1988655
-49.753616 0 1.4606211
26.92704 20.86433 -3.9577522
-6.6883478 0 -3.0207551
-14.894505 0 -9.2679996
28.257473 19.016663 5.521265
33.224041 16.639187 -5.9523621
25.847034 22.638527 -0.9966774
-57.387478 2 9.0427332
19.579782 2 8.7098551
-47.992016 0 0.34126544
-35.993523 2 9.3284721
28.170937 22.016581 4.0962658
-37.087715 2 0.11486554
34.509804 9.3674116 -8.8688135
36.403442 16.980061 -1.4489291
43.447163 2 -0.95995539
37.897854 13.918832 -0.40261137
-37.920406 2 -6.1336217
-30.188095 2 8.9098148
-0.1498549 0 2.1281476
-17.317656 0 -2.8205705
29.542103 28.797649 -1.4218773
22.696053 0 4.554069
9.7376003 2 6.8468318
11.980557 0 -9.2348061
-32.897839 0 4.4619026
-42.945625 2 -4.6901259
20.678524 7.0659356 -6.0167279
30.221081 28.832369 -1.4145325
-1.0953746 0 3.2127907
-38.477558 0 9.0056734
36.408291 17.300732 -0.0096476162
29.841522 30.473301 -0.72907412
11.994702 2 -5.8925767
6.6375961 2 -7.6431546
0.046847343 2 1.3956835
6.9074974 2 -3.5522089
22.635622 11.290929 5.5803752
38.495506 12.527308 0.14822637
40.525986 3.3526368 -6.8482823
-10.632563 2 -5.6246443
1.1210876 2 -4.6232977
-32.288734 2 7.7726574
-19.182848 2 7.46106
43.146877 0 4.6334305
-26.047153 0 2.1140594
-51.50816 0 -2.3464694
33.216755 0 9.1151953
15.527269 0 6.667295
26.518085 0 9.0929403
3.7457023 2 -9.1393566
23.076014 15.685601 -2.35481
-0.069858551 0 -6.9137397
28.409508 22.507267 3.952477
-43.692677 0 -4.5712056
34.694183 12.106347 -7.3565168
37.46032 10.341484 -5.8422713
-18.188103 2 2.6756535
15.690573 0 9.1991644
25.85527 14.399679 -6.6530604
-50.318138 2 -2.1785822
-19.932194 0 5.2842207
-17.126215 0 -8.2638721
-12.231909 2 -7.3922663
34.890953 20.666941 -0.59990609
7.9355593 2 -3.1745367
21.872658 5.3454943 8.6145849
39.958214 0 -5.5341883
25.884514 21.182316 -2.6513534
-59.438728 0 5.566493
28.422768 0 9.8959341
4.982667 0 9.3004103
19.097486 5.576828 -4.4397149
18.896524 7.0332098 0.30676165
-33.402531 2 0.10682774
-37.865948 0 4.5498972
-41.309238 2 8.7741871
26.933949 0 8.7994089
33.222298 0 -0.6654892
26.871845 13.536027 7.5791998
-17.498117 2 -7.4593387
-50.972679 0 8.0830336
-22.136469 2 -1.7200649
0.7815035 0 9.4752913
-54.059494 0 6.2551637
2.3689828 0 -6.7070317
-30.828659 2 -3.0977881
-36.580357 2 3.5529201
-15.831627 2 2.6697254
24.031727 8.4281502 8.6214485
-46.774559 2 -6.7382441
-4.1280923 0 -2.5199528
-12.795752 0 -4.5157547
-40.358952 2 1.3378284
35.398125 14.781391 -5.2669492
40.718048 5.4090447 4.4949765
-57.263454 2 -5.0095997
-51.658012 2 -5.5368042
25.012964 9.1384201 8.8192902
25.206326 20.692865 -1.8166304
31.172604 0 -5.8717785
34.210598 22.191372 0.68733078
7.0124488 0 2.6828723
-37.305851 0 1.0529375
34.880074 13.886909 6.2599511
27.164284 0 5.4273643
-13.618778 2 -3.0397987
2.5731294 0 8.3768768
-9.4466228 0 -1.8263291
-33.716679 0 -4.2511053
20.640301 0 -6.3191609
-17.492321 0 -7.6393929
-37.635708 0 -2.8926501
-62.58704 0 7.4670219
-51.952621 2 9.096859
-13.305141 2 -0.4897387
2.7211256 0 -2.3905787
13.741356 0 9.3127308
-37.181374 0 -4.1074615
-59.326004 0 -8.423934
30.585007 13.644743 8.1067486
33.888348 22.050264 -1.9088972
21.422823 7.3479137 -6.8152552
-19.102388 1.6904719 8.0932865
31.823261 23.355986 3.3348939
-46.046398 2 7.3573251
18.907625 2.2250435 -7.1902437
-56.287037 0 -5.0628057
-44.96616 2 0.3249588
-17.518772 0 -1.9033271
-37.312038 2 -9.2449617
-38.537926 0 0.24240875
20.129719 0 7.3795834
11.792286 0 4.4912119
-11.250795 0 -5.5512304
22.21055 5.9391756 8.5529919
35.876762 0 -2.3807049
-50.111141 0 -8.8889809
29.811758 22.960058 -4.0312634
-44.808075 0 -7.2597318
-50.146275 0 -5.5651064
-48.132767 2 -4.5536141
4.6607981 2 4.1699104
42.26226 2 -9.2799873
-43.926266 2 7.2772684
23.214748 4.879283 9.9529076
-48.461765 0 9.1768093
-22.514648 0 -8.1726561
-53.743561 2 1.1240492
16.097641 2 7.1431074
24.849384 13.333077 6.5187068
-44.738052 0 -2.522388
9.8894367 2 -6.5038567
-54.239876 2 5.3551569
0.573349 0 -9.9528246
-4.0191832 0 3.0169761
15.408321 2 9.6091433
-56.854385 2 5.692523
-34.900787 2 -2.1956677
-15.952135 0 -0.92318428
-53.729885 0 -7.7387705
19.583017 6.0489697 5.0012841
42.365688 0 -9.6165085
37.734707 0 -9.1044512
-53.65123 2 2.5894537
-10.650083 1.6436951 2.1146553
-19.742403 0 -5.0365257
22.723555 7.9487996 -7.8106294
-63.895813 1.2500452 1.7293
-44.390068 2 2.3502173
27.641893 23.184097 -3.2137897
-29.795797 0 9.8735828
32.024612 0 -9.6559086
-0.85876846 0 -8.0907097
12.777012 2 -9.8499002
-54.262596 0 -6.610796
14.355303 2 4.1736383
11.91132 0 -2.2428668
43.993843 0.33262146 -5.0617599
34.648308 15.200903 5.7069092
34.512268 21.602736 0.1995557
-13.991198 1.7035365 2.9947126
42.72052 0 2.3799839
-15.563385 0 0.48400259
24.91548 16.39456 -4.7843628
-32.245266 0 9.5082235
43.298073 2 8.3514738
-10.713446 0 1.1455637
31.461166 0 -6.0727081
-41.834072 0 9.7857265
-3.3150084 0.51371551 4.3046246
29.200607 26.820827 -2.2282252
-1.0346365 0 -8.399085
-41.294147 0 -6.3891792
3.7178535 0 3.2127442
-62.786083 0 5.2967267
13.064259 0 3.6945503
-47.67194 0 -4.9130416
-39.373951 0 -7.7598338
-6.6527119 0.74161804 2.5519991
-37.224369 2 -4.6237984
-45.991066 0 -9.6102571
-53.924568 0 -2.8473361
-26.655178 2 6.4044118
-2.0584998 0 -6.6607165
28.498457 17.870066 -6.0990353
18.836544 0 3.4128518
-13.370785 2 -0.10346735
31.394882 0 9.7690668
12.465801 0 -7.3209734
-58.699959 2 8.9306803
-13.130637 0 -4.6167789
-13.183077 0 -7.3748202
29.992395 18.725426 -5.8931303
4.7941847 2 -9.0750303
-15.266855 2 -7.230392
-47.990963 0 9.3164196
-41.133377 0 -3.1104894
-59.955662 0 -3.8361683
25.965418 0 -9.7573404
-20.596834 2 -9.903285
16.296913 2 -2.4219484
-60.91251 0 -3.1798811
-3.5226622 0 -0.57627177
19.672127 8.4256496 -1.9782174
16.864883 0 -8.1991558
-4.1553888 0 -0.46407342
40.410946 4.5978522 -5.961823
23.361973 16.123602 2.5635009
21.130974 0 -3.3428068
39.425007 0 -1.3636646
-47.569756 0 -0.016835213
-38.810276 2 2.7268498
19.047951 6.7865162 2.4025681
-25.410128 0 -9.506073
43.993839 0.28644252 1.3101897
-2.2921228 0 -3.5753603
-7.3700094 2 2.3131621
-1.5519966 0 4.5436945
-23.510513 2 -9.0025816
-58.260475 0 7.4669347
21.29789 12.145287 -1.8396107
-28.916775 2 -3.972259
21.282436 3.3264344 -9.2354679
43.993839 0.074381232 6.6641798
41.202171 6.217814 1.4755219
11.385344 2 5.4131842
22.513588 6.4413176 8.5148201
-38.805622 0 -5.6133065
-51.337875 0 9.4063234
37.548389 0 -2.3715115
-23.588575 2 -4.4992208
14.157113 0 4.3885288
-23.13073 0 -2.9357431
-17.512291 2 -7.6364241
-23.111065 2 1.8303132
31.355698 15.64031 -7.0935411
6.3057308 0 -9.9515772
21.751534 3.347702 9.6421432
-54.752441 2 1.620513
25.603264 19.819519 3.294703
-30.426891 0 6.6407313
13.000106 2 5.0980492
-48.966545 0 -5.5717134
-31.793528 2 5.6052914
38.067123 13.374658 1.1340837
-60.953354 2 2.743186
0.53458619 2 -3.7658532
29.292309 0 5.7684755
-15.616341 0 2.6489487
-47.506767 0 -8.8537025
-43.109715 0 3.9104967
22.785772 9.1940413 7.1419797
1.5130887 0 -6.6125107
35.02095 18.84166 2.7967861
-62.910267 0 9.9524565
41.829861 0 -3.0771408
-54.241905 2 -1.737606
-33.69138 2 -4.1602135
-53.270905 0 9.0599442
-44.568542 2 -2.2940702
42.31089 0 6.282074
-7.6290679 0 -5.0791092
-39.588264 0 -2.889205
32.030998 0 5.9456491
-27.927734 0 -3.0058112
-32.248386 2 8.5645514
8.4913177 0 4.3884053
21.279812 10.798192 3.6415169
41.003922 6.7860708 -0.7580936
20.302717 9.9378004 -1.6850021
21.006516 10.930962 -2.7134607
5.6886306 2 6.7022104
0.35494736 0.46130633 9.974453
-19.806702 2 7.7833219
16.125599 0 -7.3950129
22.830639 0 7.1402736
39.090649 6.1558571 6.7912397
20.43581 10.419279 -1.0630059
4.1013851 2 -1.4509523
34.993164 11.423298 -7.5157647
30.253109 0 -9.0633059
-38.349815 0 -8.1012325
-12.045385 0.19685197 2.3539042
-47.988861 0 -5.1822634
2.1227994 2 8.0178366
3.6241922 0 -5.7043343
-6.8856959 2 1.4344684
3.4631557 2 2.0950284
-54.094002 0 -0.97344589
15.16927 2 3.0556653
-34.023941 2 3.8253219
17.501835 0 -5.8020196
-62.82563 2 1.9631634
38.065765 3.6469159 -9.4694843
-42.860279 0 -7.6677775
-38.458775 2 5.7721004
-24.371143 0 -7.9732947
15.30314 0 -6.326118
-22.862797 2 5.1685643
-50.504921 2 -7.6083517
-61.947128 0 0.82433891
-15.560061 0 -0.54218435
27.804665 0 2.2451029
36.332092 15.748198 -3.1970117
-9.123064 2 -4.1083736
11.090548 2 0.20550005
-4.0816679 2 -1.7590125
-36.737823 2 4.8629489
-26.423168 0 8.6846991
34.552174 10.984327 -8.04603
38.533188 6.5986848 -7.1502538
-9.9826975 2 -9.6475716
40.615665 5.3712158 4.7942324
-61.385544 2 2.3130169
28.332657 19.86376 -5.1529565
36.526783 9.3108721 7.5080094
20.908363 9.747324 -3.9714417
29.4568 18.982 5.769609
13.870723 2 6.0975761
40.492706 2 8.6903057
11.581269 0 3.556109
-32.888718 0 9.4185877
-21.361183 0 6.2464709
-27.945532 2 0.45118189
12.172458 0 5.4975572
-2.1785889 2 -3.5660586
22.695213 10.198122 -6.4180007
7.7043571 0 2.6752775
-54.480713 0 2.7558334
22.36067 8.4815845 -7.1394014
-46.940868 0 -5.7135463
-61.222485 0 -6.658339
-46.283527 0 -9.212265
-30.037937 0 -5.8716187
-63.895813 0.21582736 7.1252899
18.887522 2 8.3996391
-32.804203 0 -5.7524962
-19.329559 0.64995122 8.6586227
-1.1913347 0 -8.3514118
36.453091 7.6498723 8.5031528
-33.067703 0 -1.7606745
23.5306 14.500954 -4.3930807
24.957146 15.679497 5.2839775
-25.391424 0 -2.490761
-51.383286 2 -3.995719
22.072859 0 -4.6973996
9.0319471 0 7.6894693
-20.324919 2 8.9884453
33.763741 0 4.5705137
7.6322317 2 -2.1534755
-31.598738 2 6.8435388
-10.89674 2 0.14062941
27.367218 19.964025 4.69981
-0.21414 0 5.8249063
33.484871 20.994175 3.3190415
-48.155384 0 -6.9576054
-18.015673 2 4.6369519
-47.276291 2 0.25904083
24.240337 15.119547 4.8639145
22.81242 6.2981582 8.8367538
43.553333 0 6.9883385
34.71611 0 4.199564
39.535149 9.5532188 -2.3386059
31.65106 18.807308 -5.5823598
-0.22256708 2 1.8237898
25.539253 0 -3.6537747
-44.943165 2 7.4860568
10.745601 0 8.9002304
1.4377894 0 -6.3297157
43.182396 0 9.2195091
42.397255 0 0.45785332
-30.440218 2 7.6233878
31.825941 26.472992 1.5694957
34.714085 17.797581 4.0428925
24.192234 16.540808 -3.7842135
29.269224 30.633709 -0.20490175
-17.559225 0 -9.0002975
39.994957 7.120697 -4.3309221
35.750282 0 9.2320557
5.3032651 0 -0.834373
-13.763246 2 -5.7206993
-25.883011 0 6.416585
27.148785 22.964951 -2.9362111
-11.375093 0 2.2228212
-19.382996 2 -2.7209795
43.465302 2 3.9432507
27.140522 25.83457 0.22495046
18.667242 4.8286381 4.1567106
-63.895813 0.7878378 6.5508041
23.015572 14.199976 -3.8162351
35.256634 16.245358 4.4561248
-60.161884 0 6.0016146
12.210817 2 -0.27759078
-57.288387 0 3.0686898
27.984547 26.418221 -1.6317134
35.985481 18.218361 0.46769708
33.347691 21.757776 2.968364
19.311794 2.1188531 7.8882041
-52.456409 2 1.6147928
-41.779392 2 6.4747243
-43.938347 0 2.7064271
-36.570351 2 -5.4534802
-21.261824 2 -1.6508663
42.413921 2.9538002 -2.8157876
38.736378 5.328269 7.7443867
39.39777 10.478635 0.063922726
-27.317236 2 0.35917866
37.27803 8.6194162 -7.2058759
-51.924522 2 -2.6181593
19.598829 5.583703 5.4734383
-46.652168 2 9.533596
-53.966141 0 -7.1497736
-43.177044 0 9.3160305
21.61573 12.639096 -2.1461921
-44.508293 2 7.3942652
35.982124 0 1.904645
-35.186539 0 8.997324
-9.085865 0 -5.7760744
-37.188217 0 -5.3500271
22.51897 0 5.0265493
0.54559445 0 -0.04387784
39.332783 4.1733136 7.8328938
22.008772 10.833925 -5.0381804
23.27589 9.7721338 7.2540851
8.6833706 0 5.3805118
-24.024483 0 -6.8419394
17.957985 4.8468547 0.79021555
-20.420113 0 -2.7370331
-29.481552 0 2.5341206
30.020519 10.022054 -9.7189417
24.700212 0 6.202446
-26.803019 2 3.6535704
16.565037 2 8.605834
26.947327 25.27923 0.58608276
40.942375 5.303463 -4.1041417
25.52039 0 -7.4991469
36.606606 6.0456595 -9.2699499
-33.853661 2 2.622144
41.331055 3.4437921 -5.260355
-53.945362 0 -5.2452145
-53.886978 2 -5.4921689
37.036236 0 7.4761105
-40.359142 2 -0.52529573
-49.904076 2 7.9224672
-23.729464 2 0.45599449
-4.4890966 0.62295884 3.5076427
-9.5069962 2 -7.7392015
24.303246 17.781738 2.9175582
-30.356674 2 -0.86593175
-49.899487 2 5.1279941
30.578659 19.55057 -5.4802895
43.169228 0 0.7629776
24.04248 18.154776 1.8695024
29.212109 0 5.2295713
13.564457 2 -3.0227103
39.203747 9.9463501 -2.832351
42.732147 0 5.2958622
12.437354 2 -3.9712696
-23.115019 0 -3.3428185
35.735809 17.126144 -3.0382433
-50.378693 2 9.4302835
-29.991283 2 -2.7406635
-32.035297 2 -9.1064692
26.90943 0 4.3953905
30.588022 29.589142 -0.88367623
-63.466412 0 -7.9261155
24.638519 0 -8.4023857
25.447073 18.766945 -3.8401153
39.542809 9.9926167 1.3223883
-15.070621 1.1044815 3.5977144
36.521236 10.0208 -7.0804858
-43.384747 2 -3.4774616
-52.985142 0 -8.2065916
27.108021 19.307978 4.8843622
6.9000998 0 -9.7689066
-17.84367 2 -4.4474144
39.295509 0 8.173193
-37.490501 0 -8.3016682
-58.921684 2 9.4374485
-63.655823 2 2.2595768
10.576139 0 -4.760437
36.420174 15.951565 2.7986057
-50.296085 0 -5.2074556
-49.122429 0 5.1433325
28.794952 11.016269 -9.1982327
-20.237419 0 -3.4848781
41.309235 5.2559848 2.9796023
-57.790985 2 8.0940876
2.4435828 2 -6.410851
22.581257 6.6755867 8.4374981
4.9919367 0 2.328517
-16.867111 2 -3.6605093
17.242462 3.1781487 -1.1108487
43.993839 0.79844868 6.5248127
-55.9664 0 3.7773628
-46.546989 2 2.781354
-1.0611649 2 -6.1790233
-44.792664 0 -5.084743
37.043327 15.777822 -0.66138893
40.505959 7.4469442 -2.321044
11.221958 0 2.3237519
-24.65308 0 5.2221699
18.561188 2 -7.6390238
40.959732 0 -0.84507561
-40.614956 2 9.5771217
-56.54586 2 8.7905731
26.493282 15.842443 6.2807078
35.822811 17.965765 1.9176366
24.562504 19.68351 1.1610364
-55.151188 0 -5.2405109
13.859136 0 4.9928732
-40.540749 0 8.3332043
-63.895813 0.68182313 0.79503059
17.782059 2 -5.3977671
11.640587 0 9.3717499
40.197552 8.2347651 1.9411713
42.534264 2 8.1891346
25.719976 9.5916824 8.9867039
-53.372036 2 0.31443977
-63.426666 2 -7.7797356
-1.467947 0 -8.5025902
-23.906815 0 -1.8762211
39.672112 6.4963136 5.5623055
-44.639214 0 5.2049561
30.966009 0 -5.473712
-20.103344 2 5.5111275
15.515511 0 6.5746069
42.865952 2.558465 0.20774728
-49.526466 0 4.5118899
20.213726 0 5.1044312
34.75264 20.95569 -0.68370849
28.124123 0 3.7820511
-46.502975 0 -2.7327642
-45.72982 2 -7.637836
-56.402119 2 6.9460611
-15.375436 2 2.8005919
-50.631943 2 7.3122902
16.46834 0 -6.2717366
28.213642 14.258744 7.6631622
37.24942 0 5.2296581
-38.780586 0 -0.41720343
34.843353 7.7752852 -9.4837961
-29.207859 0 -1.6244202
-10.832781 2 -0.93616712
18.95179 6.1693859 -3.130744
-44.139797 2 -3.6524794
-49.278488 0 9.5388813
-21.377264 2 -1.2142611
-1.864959 2 -7.6595511
24.34387 6.8178411 9.6104832
39.691414 0 5.2814121
-54.439354 2 5.7264166
28.485477 19.903778 5.1894741
20.725843 0 -8.5514164
21.54904 3.3208928 -9.4943504
31.882538 25.128452 2.3479152
-34.658607 2 1.8985736
-38.145588 2 6.7700143
-11.531038 2 -2.8071642
-15.478531 0 -2.4801192
-63.04203 2 -2.7404385
-19.257866 0 -8.0104704
29.930262 27.001398 -2.258208
-50.196941 0 9.537858
21.645374 2.9891229 9.7584133
-30.659464 2 -7.6323986
4.2308464 2 9.5173292
28.469692 16.447458 -6.7358184
-27.554544 0 2.6505408
-46.359482 0 9.1211395
-44.00948 0 8.1672688
22.932251 14.906969 2.9241738
-63.895813 0.92309904 -5.8960629
34.308807 0 3.7397881
-29.529629 0 -1.4753084
-42.364902 0 6.5567894
-14.867439 2 -4.2988701
-43.029423 0 5.018187
-25.472042 0 -3.9019969
23.567894 0 -5.2540116
29.085293 0 3.119791
25.750692 0 -3.853662
32.162498 20.159857 -4.7390795
-34.706329 2 7.62181
31.233864 10.540157 9.3763313
11.956963 0 5.6032248
0.69669414 2 3.7508526
-33.922947 2 -2.9826975
-34.434097 0 0.97464609
24.917601 13.983772 6.207253
10.9491 0 4.7960653
-20.821672 0 -4.4059672
33.740417 0 -9.8907614
26.750633 18.627815 -5.0216017
26.462154 23.214369 -1.876706
24.827978 20.562105 0.23186243
27.967505 15.088523 -7.2204952
34.487862 0 -7.0578194
-56.196178 0 -9.0177975
-41.906662 0 9.9718409
28.628557 0 2.4049025
-39.31163 0 3.6584184
10.87439 2 9.6843748
43.763527 2 -1.6088897
38.618938 4.6064095 -8.3568459
0.86283183 0 -0.13160753
20.646437 10.251388 -2.5548048
16.761919 0 -3.768497
-37.147038 2 1.085766
30.132811 27.190981 -2.1575799
5.8035612 0 7.3826652
-56.183514 2 2.4288092
-63.895813 0.75178891 2.6811752
-30.988108 2 7.0283465
32.499741 25.958342 0.78942025
-41.035767 0 -1.2090192
28.504105 20.949776 -4.705761
21.585596 12.10062 -2.853735
14.528393 0 8.2390356
-16.14085 0 -9.0378752
-41.923141 2 2.1369126
-45.214794 0 4.9649248
-54.510544 0 -8.2293921
37.772736 0 -3.8885078
27.924738 27.038769 1.0612841
26.598269 8.6260681 -9.7907009
23.879835 13.218033 -5.7201109
2.0319564 2 9.8901815
22.490498 4.8216829 9.4085207
18.257212 3.8779206 -4.2923479
25.363649 0 0.80716705
39.611794 0 4.1545143
-51.506294 0 1.1116765
-12.234453 2 -3.228827
19.893225 0 -0.41849566
-50.32188 2 -6.5605831
-51.449318 0 -7.3856215
21.997396 10.212502 -5.4808149
-31.819609 2 8.7286224
27.39883 0 -1.2761259
13.372602 2 -6.8988152
-20.905048 0 -9.4379292
-27.188244 2 6.3300428
17.524328 0 -7.117969
-35.125614 2 6.2095833
37.053474 0 -7.7621641
37.460083 13.454606 -3.1925602
30.702902 27.932568 1.6632386
24.583019 19.715521 1.1896336
26.233316 22.738806 -1.8857951
-3.9680696 2 0.63405108
19.983326 7.1858797 -4.6302805
2.4107456 0 -8.6754808
-52.809982 0 -5.1553621
23.253956 16.081583 -2.3431761
-55.957409 0 1.0404599
23.925982 0 -0.22134781
-36.880981 0 4.1961555
22.727119 9.7925425 6.6783133
-19.089109 2 2.7775865
-21.007236 0 -3.9553609
36.69846 0 -3.9820929
-25.284313 2 -6.928009
-57.892578 2 4.0746593
-28.175016 2 4.8098626
-30.896221 0 -0.99249256
37.812992 0 5.4749899
-20.063396 0 -3.4565604
-63.564377 0 -6.4047451
8.4513302 2 -0.15251857
-3.259707 2 1.0157814
-57.900703 0 -1.1416627
-51.181129 2 -0.29476166
7.0847888 0 5.5779414
23.562813 16.03054 3.1727037
-63.895813 1.402601 -2.5104957
-51.733006 2 5.0430889
-16.536161 2 -7.8948951
-60.151638 0 -3.909601
-3.2230122 2 -0.39662504
29.840733 0 9.1671457
-28.321991 0 9.7623863
30.9244 0 9.1380949
26.860256 24.489214 1.4360853
35.374084 7.9356842 9.0925455
-55.844193 2 5.8765049
21.579962 0 -3.9086032
-23.740875 2 -3.2276781
18.879402 0 4.196074
27.532061 0 0.88372707
-39.553715 0 -5.6423054
-29.627682 2 -0.39186549
17.736586 3.841424 -2.6469491
41.30143 0 0.16933823
19.13261 7.1598587 -2.1326208
43.993839 0.9514913 8.1927862
17.974911 0 6.4718285
-41.061699 2 -8.2709961
33.491661 18.560085 4.7486057
11.900284 0 6.8067641
1.062183 0 5.0919828
19.569023 0 1.1956944
-38.227329 2 -6.9531708
38.704014 8.7186365 -5.3357863
-39.822517 0 3.9509783
19.907122 2.9611952 8.0058479
22.469391 8.9003201 6.9773431
-29.676098 2 -0.62774944
-35.148914 0 -9.8457394
34.449894 21.576458 -0.9059779
-20.565859 2 -7.9557171
-35.075603 2 4.4278717
-23.005676 2 1.8722661
39.328518 2 -9.8653622
9.7896557 2 -1.9855371
-0.17528343 0 -3.6254838
-20.131454 2 1.0926101
3.4384553 0 -6.0639238
17.615013 3.8248882 -1.7886077
-25.915457 2 7.367732
-27.836647 2 4.7173257
14.385366 0 5.3103914
40.134647 2.3232219 -8.1361217
2.5167408 2 3.6931813
28.971214 13.033364 -8.3260088
22.898794 0 -8.3895941
-1.06811 1.9017638 6.7294626
27.523666 0 -5.7757311
-63.697121 0 6.3613052
-38.317741 0 -0.53565359
28.153677 16.612324 6.6021757
23.664455 0 7.2197313
-38.298943 2 8.1421776
27.590366 23.542103 2.9811428
-37.135559 2 3.0703018
-50.192364 2 4.1936002
-38.838425 0 5.9662075
-34.716465 0 -6.3554249
-5.6810904 1.0142814 2.8952947
35.317741 18.222347 2.8324599
18.338902 4.7313461 -3.2817721
29.986198 20.98547 4.9033442
7.340302 0 7.9166045
21.099718 11.196056 -2.6210384
-24.049728 0 -3.3230641
-7.7999372 1.6951874 2.2772856
-0.24505949 2 -1.4213393
-1.1809108 0 -0.90361917
37.423206 0 -5.2625084
40.055347 6.7576556 4.5589705
-42.579468 0 0.82598448
-22.247194 2 0.80053174
7.6125455 2 -8.5156727
18.430107 0 1.896672
-4.9185333 2 -0.65289259
22.287811 0 1.0315399
37.590218 0 -5.2189789
39.416824 4.7179003 -7.341713
-62.289459 2 -4.2814655
0.67239141 2 -7.594552
-37.796692 0 7.2700067
40.351521 2.0543199 8.0810452
-46.520721 0 -9.3321838
26.770407 24.910286 -0.530316
39.616055 0 2.8099117
-58.443684 0 8.0684481
35.989941 0 -2.7438869
16.993757 2.3492939 2.1016731
-33.099762 2 7.3663864
21.62537 0 9.3002586
39.821503 3.2723331 7.8752818
-2.8101332 0 -2.1742127
32.924343 20.349957 4.1984482
-16.675125 0 -1.4679844
23.845963 18.14419 -1.0389713
-46.313133 2 -2.3830867
-60.999523 2 6.3923769
40.516247 2.7507501 -7.305058
-11.31789 2 -0.80800784
-59.336506 2 -0.62666321
23.636723 15.828631 3.4676571
-29.337648 0 -4.7212067
23.157047 0 4.1804938
28.081629 12.82658 -8.2746029
1.8117434 2 -6.0033989
-49.519497 0 -9.3082132
-58.409252 0 9.924263
2.341465 0 -8.44804
-57.370544 2 3.1300259
-37.10931 2 -6.5870247
-15.635757 0 -8.9167452
6.6858463 0 4.3577151
-27.324917 0 -3.7959864
-0.12857342 2 0.49451452
13.998431 0 -3.7364106
14.427021 0 7.270381
-6.2381897 0 2.4453573
26.91724 0 -6.8913302
26.574951 15.900177 -6.3096294
42.7882 2.771039 -0.15705383
-37.361824 0 4.1337662
20.588745 10.868032 0.54270047
35.495422 10.975156 -7.4133592
3.1257136 2 -6.3601766
-2.9336054 2 -0.7481066
-22.012154 2 -3.9435198
40.055683 6.9654903 -4.3615746
23.793848 17.961018 -1.2640473
35.857765 11.325836 6.9131737
-20.192142 0 9.7035418
38.050465 7.56004 -7.0943809
-55.778969 2 3.2968006
-45.711647 2 -0.45054102
-26.222 0 -5.4908228
-42.467209 0 6.4147701
37.974743 13.552788 1.1921629
-29.545773 2 -5.2494259
-62.289078 2 5.9626503
-63.752209 2 9.2105331
34.974228 0 -8.2300959
38.098091 0 -7.6038227
39.445675 2 9.4596443
12.099979 0 8.0393429
15.182702 2 -3.3072824
-14.993441 0 3.3486824
-32.539494 0 -1.8979173
42.217201 0 2.5021572
-57.571938 0 7.7598209
-29.334641 0 2.657721
3.9263136 0 9.1048851
-37.508171 2 -3.4821126
10.36183 2 0.87124908
7.2377415 0 -5.9505057
18.882347 0 -3.9742789
32.829414 13.835341 -7.4794822
42.182594 2.9865897 3.6481478
36.898689 14.654883 -3.1375577
22.881145 15.714746 1.6155775
-47.488586 0 -5.4528222
33.49894 0 2.7489004
-0.89458281 2 4.8563848
-35.18317 2 3.4352798
27.376879 21.02899 4.1705761
24.20557 19.149553 0.16660404
-47.431175 2 7.4450011
-25.308331 0 -5.7478433
-63.895813 0.58841515 8.7771072
5.1195483 2 -0.81053436
-38.143562 0 9.5047531
-54.736073 2 -6.1991363
-0.61836433 0 -4.1887546
22.449783 11.798349 4.9088616
-44.684517 0 6.5195432
-6.1077023 0 -3.2910495
14.046356 0 6.9655852
-17.032791 0 -0.58323252
-19.837559 2 -1.5704997
43.993835 1.7699263 7.3617468
29.171129 11.259044 9.154439
13.08584 2 1.0682976
33.453659 16.503853 -5.8687534
-4.2612114 2 -6.9116378
-62.861641 2 -8.8438787
29.721001 10.889216 -9.3329353
35.658138 0 -1.5438538
-15.095457 2 -2.3485103
-5.8281512 2 -2.7085857
26.280865 10.140756 -8.9467697
18.575178 0 -2.433562
-15.471588 0 -7.5871863
-22.015219 0 4.2403221
22.876404 12.262095 -5.1586771
-60.093018 0 8.6840878
18.183836 5.2057743 -1.4659594
-2.084621 2 -8.7336178
16.452415 0 -4.4143362
2.0846157 0 7.3519297
-26.998459 0 0.87919211
42.352196 2 -4.6918998
26.358068 15.732141 6.2605462
-44.94046 0 -3.3741994
-23.627371 0 -0.18369746
27.047091 13.734542 7.5488443
-46.955372 2 6.0456572
-38.429756 0 2.182229
43.993839 1.034359 8.5683537
9.7413988 0 4.4795465
2.3335028 0 -6.2487006
-63.484688 2 -8.7078266
16.546242 0 7.8279676
-60.643597 0 6.2277169
12.050407 0 -8.2271576
33.16972 21.244457 3.4964449
-41.551697 2 2.0935137
2.2354145 0 -8.8652439
15.732721 0 -2.0315261
-19.36762 1.2357633 8.7533379
-13.495878 2 -7.6516218
34.025757 20.552734 -2.9600072
-52.809212 2 0.74110222
-60.638531 0 -6.1793375
15.561195 0 -7.3139076
34.95929 17.040529 -4.2864251
31.65881 27.315762 1.1737514
-61.748898 2 3.4968338
14.879351 2 -6.1224389
27.962408 0 5.1549969
-59.066914 2 -2.8926125
22.580214 14.535172 -2.4577062
28.061377 21.560593 -4.259078
22.734741 8.2775497 -7.6217823
-57.703163 0 -3.9714339
29.349613 11.865468 -8.8719177
1.104198 2 6.873189
40.072861 7.0797296 -4.2162938
33.281799 12.891137 -7.7291207
-22.817268 0 -8.9631405
27.341385 0 -3.454608
4.9737792 2 -0.1794157
-13.695364 2 2.0165262
24.527916 0 4.3777637
27.237766 12.875172 8.015667
-10.200114 0 -5.2298813
21.140678 6.0251579 -7.4086971
2.8162298 0 6.4600711
22.53524 0 6.6845365
-30.619051 0 -3.9548419
35.973087 12.654943 -6.0067682
20.462334 5.8200593 -6.6426792
21.551693 13.137953 -0.22906449
18.95631 2.7113338 6.8309364
31.876793 11.593282 8.7978029
-45.019089 2 5.5891218
34.751652 0 8.0944719
-21.316883 0 -9.2851248
-44.059319 2 2.1983724
-39.358768 0 7.5001726
39.966694 0 0.77153397
1.1769953 0 -8.9430447
5.2095556 0 9.9062681
22.480843 12.306805 -4.5908909
-2.1287069 2 -9.438509
40.057262 7.4250603 -3.8189297
16.625494 2 1.1820041
-4.8081369 2 0.99833846
23.074131 0 7.3859448
-13.245047 0 -0.72809136
-37.065765 2 -9.1514444
7.429347 0 -3.3602557
-12.104005 0 1.8140587
19.954882 9.4327517 -0.711335
35.162209 0 -9.8644238
-63.247086 2 -7.6618671
-51.557571 0 6.0193462
4.0126376 2 2.6277602
-35.670601 0 5.5208616
-44.971088 0 0.37282181
33.343975 22.73568 -2.2729201
-32.463879 2 -6.9731369
-47.767025 2 7.7644773
-17.511084 0 -5.0995064
42.252487 2.9006536 -3.4224653
25.734953 21.068424 -2.5234468
-18.855274 2 2.6302316
-28.675468 2 0.911057
-2.7924764 2 2.747314
-50.0634 2 -7.1864958
12.888428 0 4.2907372
-52.556839 2 8.98596
-48.47657 2 -4.533844
32.315392 16.037418 6.6313663
-18.695503 2 -1.2184935
20.870127 5.9876952 7.0923615
-48.609123 2 1.8927631
9.3759985 2 6.2300787
30.447346 0 9.890996
29.074759 29.955387 0.49103281
25.136021 20.078058 2.3301921
-56.970352 2 7.4586678
15.563193 2 6.8911314
-13.462093 2 -8.4054003
17.319321 0 -3.2716956
-41.576702 0 0.72205448
-32.482758 2 0.9512229
1.9129488 0 -3.8755045
1.0322142 2 -3.0000582
-22.700655 0 0.6128664
39.613274 5.3670731 -6.5976305
-1.2999287 2 -7.8949995
7.75067 2 -2.4874227
-46.155701 0 -0.4060812
29.235027 10.506368 -9.4599695
19.383886 3.1144171 -7.1786866
38.688393 0 -1.9309196
18.840748 4.4865737 4.9905696
32.273365 18.844788 5.3412938
29.336536 0 -7.7264972
-52.037441 0 -1.7553995
-32.343327 0 0.89115
-8.6172714 2 -6.0663304
-15.877099 2 -5.8403506
-11.202585 0 -1.580271
-10.253128 1.6160334 2.1026769
-36.085407 0 -2.9387102
-33.886395 2 0.4007619
-15.227249 2 -0.7878145
-20.006496 2 -0.016503453
29.865171 11.482952 -9.0840492
38.838947 5.7656116 7.3377247
41.541718 0 -5.4603367
-31.65793 0 -8.802844
-42.395172 2 9.2290688
-49.731644 2 9.6710606
31.91902 0 -7.5110893
-20.790489 2 -2.5368807
24.047802 0 5.0535717
-26.228848 0 -8.150979
-20.247211 2 -0.47202528
15.380916 2 0.43910134
33.8032 23.236874 0.016776176
18.888403 0 -1.559257
-15.823069 0 -5.1099339
-61.676422 0 3.670151
19.349722 0 1.5118737
-8.699625 2 -6.2195654
-18.913351 2 -7.0398784
-58.95118 2 -0.061226845
-41.070679 0 9.5893526
-39.326847 0 -8.8357239
42.46125 2.9272144 2.4786975
21.572906 12.747413 1.7181668
36.229729 0 9.9249659
-10.871573 2 0.71717751
-26.722897 0 -3.1634927
35.132504 13.407188 -6.3557496
-26.223152 0 4.8580408
28.709442 16.676805 6.6729498
-23.203955 2 3.71924
9.0687332 0 6.5558677
-51.79055 0 -8.1274128
43.993839 0.85940421 -5.8477297
21.277916 10.249068 4.2822571
11.035773 2 -9.0499382
-0.4773972 2 -3.4664698
-38.706863 0 6.4104056
-7.4870677 0 2.0397923
14.815274 0 -4.8739138
-6.331255 0 -5.1812716
-45.086475 2 -3.8851733
10.667824 2 -8.4710827
27.51844 11.319204 8.8380804
12.689972 2 2.8901207
-22.874937 0 -8.7306061
40.072929 5.2781658 5.9295807
11.034649 2 9.426198
20.751528 7.3158069 5.8976746
4.3112931 2 -0.83663678
-27.342636 2 -6.5287409
-48.423519 0 -6.0281072
20.088715 4.8005009 6.9237413
28.042088 0 -8.073123
-12.89339 0.42102432 2.6041563
-34.312141 2 -0.27206039
24.004333 0 -3.0882945
-12.352427 2 -0.21241283
35.087509 0 0.71391106
18.092594 0 6.9697442
35.565895 10.496561 7.615973
-54.667946 2 -8.5202532
0.38849962 0 3.876421
-25.085461 2 4.5963726
40.276142 3.1057053 7.415504
-29.588211 0 -6.2250843
-16.575035 2 3.0800102
4.7760324 2 4.9689169
29.591484 0 3.100543
-54.608025 2 -7.9549112
-52.298157 2 -3.9006696
-12.100472 2 -4.8332701
-35.397079 2 0.43460703
40.645348 2 -7.6939764
0.7756511 2 4.7835293
-1.0310417 0 2.5091412
-24.643347 2 9.3788986
28.359962 20.541565 -4.8531003
-54.300121 2 -0.16269112
17.187147 0 -5.4092331
-53.314083 2 0.53453445
37.835186 8.7133112 -6.535449
19.147778 5.8522873 -4.2453094
22.295923 14.79694 0.15922125
24.643873 18.939445 2.4437952
-63.895813 1.9206601 3.7310619
-56.447964 2 -1.9439964
29.196976 0 7.2884197
31.776665 0 7.2101984
-62.262791 2 -3.5737839
-38.983017 0 3.6328142
-59.191959 0 -1.7126166
-7.0595884 2 -6.5810509
-47.652374 2 8.8213253
17.295944 3.2027657 -1.4435705
-59.653496 2 -5.6049023
-49.019272 0 -2.5345466
-52.735523 0 1.3008981
40.315239 2.5481563 -7.7261581
-10.948353 0 -5.520422
2.9265161 0 9.3881445
-46.02837 0 -6.0402527
1.1509566 0 -6.5312877
-36.338959 2 6.3543921
29.079779 21.225691 -4.7306991
-29.898722 0 -6.8469205
-21.932936 0 6.8868637
-40.786636 2 0.85280943
-34.182724 0 -7.692184
-27.27755 0 4.2301359
-61.878151 2 -3.3196068
-63.448456 2 -8.5738544
28.96941 0 -5.5713024
29.744301 0 1.0208817
-61.531334 2 4.9604397
-25.337757 0 7.1637478
41.87841 3.8975971 3.1644046
-31.000124 2 0.10490789
35.118809 12.783419 6.6887808
-50.6609 2 1.4407663
16.061924 0 3.0461397
-34.29594 2 9.1179237
-52.861912 0 9.5527458
-23.290619 2 -5.2528658
40.234684 8.4707794 1.096384
-42.015106 0 2.8075469
-1.947381 2 -5.0120397
19.793514 0 4.5960913
-13.688548 0.89735866 2.8851037
-7.6221218 0 1.7142305
25.901716 0 -9.7659683
-63.895813 0.70619172 -0.71012115
-43.104626 0 2.8889692
2.832644 2 -5.2147651
20.71265 7.4882483 5.6903911
-7.4354124 2 -6.6876912
43.777298 0 -1.7107468
33.236858 0 9.0132093
17.237471 0 1.5041161
25.410391 18.75783 -3.7972374
-54.590527 0 -0.8825078
0.095659524 2 7.9100094
18.446556 0 -0.35556507
-48.167854 2 1.6879263
16.577583 2 -8.4816971
-10.68105 0 -3.3014402
-22.351763 2 7.6249762
37.066719 13.196737 -4.2237773
-31.857307 0 4.7462835
22.042555 6.8133101 7.8768139
-34.585121 2 2.5204139
23.547838 16.515823 2.5650167
1.8156986 2 -6.1243377
-20.365198 2 -2.8765635
38.629349 0 4.2772484
-21.185699 2 -8.5289745
24.236328 9.1282463 -8.3473492
-45.699932 2 -1.0743341
40.296062 5.5317106 5.3552485
-41.556252 0 -3.4207592
4.0836148 2 5.4035268
11.232921 2 2.1663806
-20.134941 0 -0.1758644
-61.432358 2 -1.6918068
-13.563629 2 0.8388083
43.993839 1.260691 -2.8234029
-52.298828 0 -3.6767769
-24.251369 2 4.6264868
-38.534752 0 6.5898576
-39.716927 0 1.0397148
11.901988 0 -5.8399715
-50.006996 2 1.6596365
3.7749195 2 -2.2205048
-27.179903 2 2.6540489
-34.764576 2 -9.9557037
20.178139 6.3185015 -5.8610497
-50.851189 2 -3.911653
-38.891197 2 -9.0218439
3.4306822 2 2.4167619
-38.369774 2 -9.3514442
-49.545383 0 5.2232232
-18.681931 0 -6.0776129
-56.209984 0 -6.4955726
15.091 0 -8.4390011
-20.185989 2 -9.3973732
-58.042393 0 2.2559206
36.86554 14.112329 3.7542372
33.224266 23.210445 -2.0848551
-25.733007 2 -8.2134266
-31.616447 2 9.118042
18.314823 5.6742039 0.6468665
-9.1285515 1.1379489 2.1026769
-30.56916 2 6.1184573
22.025143 8.0582752 -7.0747981
33.148273 24.670946 0.45833802
-60.401566 2 -0.19928646
-60.354675 0 7.3133655
36.372791 0 -0.37223816
-6.4058647 0 1.4935334
10.398806 0 3.1079872
23.476166 6.2926674 -9.3335457
35.238846 18.508131 2.7217069
30.201447 13.23556 8.3030224
7.2252479 0 7.5017457
13.816274 2 8.6064816
37.949871 7.8516417 -7.01547
-40.058437 0 4.5557261
6.5553203 2 1.1512465
-27.214663 0 -7.5448093
1.675559 2 -7.9247689
-47.237164 0 0.45372105
-46.556755 2 -6.9054246
15.303818 0 5.2811427
-53.469135 0 -4.780695
-3.5375326 2 -0.77070451
23.256775 7.8791952 8.304945
-28.548603 0 6.1369033
-37.50528 2 6.7798462
-56.711693 2 -5.9557395
5.7508345 2 7.8117094
-29.9445 2 9.1923103
-49.015541 2 -3.1610866
27.348507 15.404216 6.8792434
-25.81196 2 6.5743046
28.895296 28.080137 -1.4710138
-38.799362 0 9.3152485
19.75585 8.7315369 -1.5765741
-62.775772 0 -3.2929726
-27.349569 0 -2.1890368
-41.089653 2 7.3029747
3.6029825 2 9.4191742
37.292912 3.811343 9.9872913
21.108685 10.204153 3.9139097
-40.726418 2 2.6083102
0.62911898 2 -6.7962642
21.445509 12.636419 1.3579408
40.307442 5.4277205 -5.3592448
29.294338 26.143717 -2.5592818
-36.68325 2 -4.2342072
-14.565204 0 -1.9102727
-46.002068 2 6.041142
19.985294 0 8.6072655
16.118698 2 6.6419606
17.142353 0 -7.799397
40.051422 0 7.1726284
-32.419777 2 7.6600885
-40.152027 0 -7.8082781
0.26042688 0.49238789 9.5358763
-5.1473989 2 -2.0220113
-43.271828 2 7.5975361
-36.12986 2 -3.9990973
25.365202 11.775289 -7.7100916
31.788599 20.723862 -4.6368275
-26.321627 0 7.4441137
26.06189 23.357027 0.41735539
-45.709007 0 -6.1316423
27.931988 0 9.7301121
2.5501685 0 -7.5700011
25.889952 22.988474 -0.28581771
34.198666 17.845987 4.5799932
-52.515648 0 5.1842079
21.870901 13.648954 -1.1260246
23.925705 9.2310495 8.0835657
31.844719 19.178425 -5.3547606
-19.434322 0.59344625 8.9193325
-62.722816 0 0.27580971
12.557468 2 -8.3783827
-32.681728 0 8.2515039
26.868237 9.1596603 9.6121483
2.6356416 2 -1.0746806
33.434834 24.06979 0.087200969
20.877068 4.7147226 -8.0041838
12.750092 0 -9.9673777
30.530787 0 2.6152792
-0.079708487 0 7.7037067
-43.47451 0 -2.6676488
-54.241142 0 -1.6171179
12.928833 2 -5.6918406
-40.90358 2 5.0272188
9.6799679 0 8.7486792
3.8843911 0 9.372817
-19.336082 2 6.5756269
1.9198612 2 7.4642377
-41.769226 2 -0.72624516
-21.59724 0 -5.2816348
32.740673 20.495459 -4.2391553
21.446081 0 8.5810127
-41.043495 2 8.8694286
-35.223579 0 -6.6011481
-23.505016 0 -1.9269903
-40.742252 2 -1.5659257
-5.3720803 2 0.10419154
-24.659021 2 -2.406481
-35.601025 0 7.0408254
37.800682 0 1.4377117
-19.492094 2 6.8281913
17.974165 0 -8.8715096
-50.385235 0 -9.6828861
37.579163 0 -1.7253914
-10.022887 0 -1.9568512
-59.920364 2 3.8416185
-22.65802 0 0.74938262
7.5289011 0 -1.7668612
-45.414558 0 -8.8216829
27.68117 12.374951 -8.3748665
41.08857 0 2.9685059
10.990529 0 -3.0553455
-3.4958048 0 -5.9921904
-4.0935779 2 -4.578208
43.993835 0.481197 -3.9399805
-16.70332 2 -2.4061491
4.7812495 0 -0.8570447
8.0986614 2 -8.6549492
-4.0518885 2 -4.2349229
32.823524 0 -6.0155869
27.346378 12.413836 -8.2700825
16.629761 0 4.0621548
25.360489 0 9.30972
34.938477 20.045856 -1.6439562
-8.9795828 2 -5.7299056
31.06785 21.953194 4.3223786
-30.953476 2 -2.9874063
0.78461444 0 5.0443039
-29.771507 2 1.2645452
35.320759 0 0.2252121
-43.737167 2 5.3798952
34.907379 20.573092 0.82069194
3.3893707 2 -3.2852786
25.708744 19.489206 3.6336684
-1.6861644 2 -1.8037473
-7.8480248 0 -2.9824612
-50.902374 2 -6.4719715
-6.9527826 0 0.070872307
30.951305 26.823774 2.0811071
-20.700169 0 -5.7090154
35.564056 18.137947 2.3591955
-45.29847 2 -1.145658
-5.5289078 1.9468398 2.9490643
13.499586 0 7.3467002
-36.79192 0 -4.5675917
17.615191 2.1181061 4.724628
-28.970617 2 -2.3853309
-23.267153 2 1.9603237
-48.044479 0 0.65609193
-39.558224 0 0.81747961
-28.639668 0 -7.6024604
-24.327379 0 -7.813324
6.2593455 0 -3.8552628
40.844666 0 -8.0040751
-2.162673 0.84325403 5.3496656
14.277973 2 4.6787095
-37.346577 0 7.764194
30.373184 26.549316 2.4052033
-40.120956 2 -4.8023295
-27.916138 0 1.9351145
9.3756752 0 -8.2108593
-50.081837 0 -7.3908701
-52.02742 2 2.8911533
18.332279 0 -8.98069
35.134537 0 5.4916134
-62.013657 0 -7.7255263
-49.302578 0 1.4455514
16.693186 2 5.1290245
36.294682 6.4035039 -9.291482
20.025835 7.3773966 4.5417972
-33.545017 0 1.4985538
-5.9499836 2 -4.0014582
-52.887844 2 -2.1382241
-1.9682379 2 -8.5665874
-50.257912 2 6.3034692
21.898861 9.1076822 -6.1618819
27.437237 0 4.7465029
8.5527897 0 8.2159891
34.490013 14.29083 6.3473716
27.557434 0 6.9120026
26.756817 19.450876 4.6126914
-54.379951 0 -4.1132717
-63.487377 0 5.0598512
21.867659 0 -6.2968111
36.923943 9.5415602 7.0087585
28.016207 26.326149 -1.7271279
-34.325726 0 3.7053924
-37.962784 0 -6.0428472
-41.457611 2 -9.8306103
7.3887925 0 2.4811969
-23.723494 2 6.1293154
-31.972477 2 8.3747768
-46.225296 0 4.9066753
-5.6989608 0 -5.9670362
37.035152 13.001635 4.4072008
21.160061 9.8395004 -4.3809242
-33.210636 0 -4.6367774
-27.920021 0 9.7839375
2.9891486 2 -1.7168978
0.05123648 2 3.6865034
-43.526955 2 1.2006974
-46.329685 2 -8.4654417
-3.8762677 1.1812906 3.8514395
-63.235161 0 2.1585126
-8.833396 0 -2.9545422
6.4846673 0 -1.1125722
-15.061736 0 1.9926689
-57.652977 2 9.8740377
-45.438843 0 2.719877
-1.3475285 2 1.9130676
26.336365 23.967268 -0.39466089
40.604874 7.2768726 -2.1808057
43.993835 1.7967343 -6.8696966
28.615974 29.058727 -0.42908904
6.5684896 2 0.014496088
36.379986 14.485262 -4.2488489
7.5350342 2 -2.6997128
-60.653976 2 6.9481277
-20.082611 0 3.6642048
0.46300316 2 3.3573484
-33.568878 0 0.20070362
13.189478 2 -2.3530669
17.045547 0 -1.4986291
11.491065 2 -2.0879872
8.6618919 2 -0.35125446
-43.441376 2 -2.843287
-50.514614 0 -1.8460548
2.1919065 2 8.8782139
-53.06971 0 6.749114
15.578796 2 0.021243542
2.2761066 0 -5.2638822
18.126356 2.7298274 -5.2851162
14.527938 2 2.7939081
7.1196823 0 -9.235918
-31.304991 2 -0.93495899
-51.85981 2 8.0234718
39.159767 6.3158588 6.5452433
-55.55917 2 1.3839149
-32.669491 2 -2.4767458
2.7965555 2 1.8293056
30.524448 21.077808 -4.8131437
30.381805 25.569269 -2.8497026
28.661116 0 9.9178333
-33.635887 0 5.4654779
-4.7185817 2 -3.9447622
-18.763153 2 -8.0916348
35.713078 7.9162197 -8.8843775
42.038265 0 5.772192
-30.525135 0 9.7428122
-38.292042 0 7.8940291
40.243439 8.5982094 -0.42558336
-23.332981 0 -4.7692375
-44.322052 2 -3.4254389
27.198923 0 -6.3237734
40.134117 2.2776947 8.1798868
37.2598 13.74846 3.2987218
-42.570671 2 1.977154
-0.021426678 0 5.009428
-0.028458118 0 -0.92849481
-40.04084 0 -0.28031921
-24.042347 0 2.0665474
-25.236338 2 -4.9462967
41.358112 4.9091434 3.4743123
-23.614254 0 6.3594275
-25.964581 2 4.5504217
28.956758 24.096825 3.4069748
-29.346924 0 0.6289742
21.629856 12.276717 -2.734694
-53.395267 0 -9.3946953
32.962074 0 2.2038689
3.4376347 0 6.9595218
24.760309 19.511942 -2.105572
42.224174 2.5369167 -4.0593133
-48.180435 0 4.9473829
-61.27095 0 9.3678293
-56.888733 2 9.0021143
5.2788382 2 -4.5270591
1.1579738 0 -2.4387598
30.543621 22.590883 4.1361551
22.97772 16.069151 1.326427
0.077172995 2 -3.7817283
24.685204 0 0.5326395
-21.6555 0 -1.3999228
32.668571 0 8.1663713
20.601192 6.513763 6.3239388
-28.498428 0 -4.7385054
20.409536 0 8.0244312
-31.110085 0 -9.1993952
-21.313759 2 -3.9760597
-27.576744 2 0.71532369
2.9595184 2 -8.9989815
-28.211651 2 -4.6541824
-5.5342855 2 1.930635
3.6883183 0 -9.0206461
-36.616425 2 -2.9132409
-30.693592 2 8.5874062
-28.237288 2 0.49773765
-61.246723 0 -9.2587214
-38.444111 0 5.9750004
21.866953 8.1444778 -6.8286591
43.993843 1.3347189 5.843976
25.542282 21.088875 -2.1213942
21.629244 0 7.0290728
35.482918 0 -9.709506
-56.730736 0 -6.5559464
-20.875406 2 -4.878387
43.019234 0 -7.1968689
22.001564 8.7339487 -6.5762014
-53.097252 0 -4.0988121
-46.756264 2 9.1841545
33.304497 23.266502 -1.8828995
-14.36319 1.6678845 3.2025194
-44.633961 2 -6.0548277
5.4780741 2 -8.5693102
15.722541 0 -2.1030717
-40.20303 0 -1.9297547
17.695503 3.5934868 2.7695231
36.494011 8.4432697 -8.064229
36.733299 15.885767 -2.009661
-23.623732 2 3.3574221
37.259399 0 -9.8594685
1.7525949 0 -9.6740932
-38.574799 2 -2.180913
-51.929848 2 2.3691397
-40.832115 0 5.8980184
29.948544 12.559847 -8.6088123
1.8677822 0 0.24835992
-31.560974 0 3.3425913
-46.806492 2 -6.5359488
-49.305592 0 -3.9138896
-57.604004 0 -0.93567777
-33.383331 2 -0.58756542
-21.181068 0 4.1806917
42.183441 0 3.1168232
-62.899445 2 -7.9066238
10.456204 2 -3.8012304
-16.622084 0 -7.6429362
33.641529 8.3114328 -9.7691851
-51.510025 0 -0.53654909
24.945885 0 -8.5626583
-63.895813 0.75528592 5.7216759
16.423443 2 9.3144646
-57.564892 0 2.6429973
21.065941 0 8.2933264
25.36478 0 2.1941109
9.0746222 0 -0.43811846
22.124163 0 -7.3744769
25.893543 17.452923 -5.0638113
24.185291 18.067173 -2.3715634
-33.105686 0 -3.0437279
-30.061087 2 0.01064074
-56.74514 0 8.3804674
30.890141 0 9.1577921
2.5208509 0 0.85180146
38.940796 2.0119598 9.6703176
32.642899 25.805532 -0.42482457
21.841539 11.295084 -4.3155642
37.726021 6.3647532 -8.1452179
-27.758707 0 5.6056671
-8.5930166 2 -5.7339177
-9.3470001 0 -3.2699745
-48.01931 0 -9.9721088
-36.183029 2 3.6834862
27.845093 15.612576 -6.9512873
-6.1533842 0 0.83620834
-33.592972 2 9.9847269
-32.734001 2 7.526485
-39.300968 0 1.1988182
41.760677 4.0886836 3.3131962
36.198944 14.735136 4.3162489
-0.52764606 0 -4.293159
3.1380506 0 1.9541492
-46.772285 0 8.7384672
40.664341 0 -3.3779869
-20.560585 2 8.7770472
-53.768215 0 0.098255396
37.331429 6.9396229 -8.1744261
-39.612545 2 6.5756364
-56.282272 2 -0.13554382
-55.382454 2 -8.0521679
-31.34531 0 6.8753076
38.193008 8.0343904 -6.5520306
32.245445 0 -5.4078865
17.234468 2.8750224 2.1249218
-57.756615 2 4.3793936
21.118698 9.9054995 -4.2346377
28.93347 29.731979 0.43295032
-1.192277 0 -6.2905478
-61.668335 2 -2.2659473
-51.987225 2 -2.7328238
43.993839 1.3708868 -5.1326904
-3.6039596 2 1.8612942
33.78973 14.586048 6.6390204
-34.157379 2 6.2312207
21.429663 6.8953552 -7.1580534
38.948135 0 -0.99129486
-34.746567 2 8.2155972
8.5637121 2 -4.8749089
22.043495 0 -4.6442842
19.904697 2 9.0123358
-56.157169 0 -0.89854717
20.496147 0 9.1327667
36.513802 0 -1.6558304
18.063871 2 -7.086638
0.067771912 0 -3.1553445
17.536747 4.0113525 -0.49833789
22.126608 14.307262 1.0424625
-5.7800517 2 2.730372
23.373388 12.387426 -5.7382712
-58.013016 0 5.755434
-13.984034 0 -0.58154416
23.129253 8.5821533 7.8060007
-61.728592 0 -8.7003565
-22.645311 0 -6.1115332
22.540834 0 2.2899551
-54.835293 2 2.4509792
-52.280052 2 5.9527092
32.007225 25.594627 -1.9526132
13.569782 2 8.2084446
25.484665 19.643475 -3.2449098
32.817413 21.305695 -3.7586854
-46.193409 2 -1.3502593
-49.966331 2 -1.3595028
-28.771729 2 8.3176479
23.586195 8.4361458 8.2572021
-2.5916486 0.63922745 4.8886976
41.44643 4.0240211 4.3103361
-43.544403 2 -1.532541
-52.365143 2 -1.0769005
-63.242638 0 8.9801903
6.3422499 2 -6.6059341
18.214531 0 9.1881514
-23.55312 0 -5.8593197
10.199532 2 -1.0385606
-62.876682 0 5.2481689
24.418434 16.709198 -3.9659483
-5.7266293 2 0.75936484
-53.786079 2 -5.9568739
-63.895813 1.1943998 4.9867449
9.5669985 0 -6.1371183
13.26263 0 0.93476045
-13.404706 0 0.037808184
-53.980854 0 5.6971617
22.961964 16.326694 0.041400418
7.140007 2 1.8785839
-25.710838 0 -8.2576008
-37.437904 2 -0.26655078
-26.498863 0 -0.11120689
-46.25156 2 -3.6425986
1.8398434 0 0.0040636063
40.653748 0 -6.4226856
-30.509079 2 -6.2312946
-62.364868 0 2.3391972
-62.287258 2 1.2231026
14.867166 2 -3.5774832
-30.376593 2 5.8244796
-2.6086826 2 -4.5678086
22.804001 9.2518911 7.1243157
37.58902 13.655239 -2.5538807
32.687099 25.162136 -1.2620513
14.012958 0 -0.66942221
-52.332882 2 6.6251206
20.27137 0 -9.4352837
24.091942 0 9.030571
35.435978 6.0775528 9.9907866
16.36558 0 7.0415807
18.390457 2 -7.3118682
-32.611977 0 6.6944633
16.262014 0 7.227212
-6.954443 2 -6.1049337
35.242668 11.92519 7.0722127
-40.078945 0 4.2830458
9.4716969 0 -6.3813329
22.503414 11.301275 5.411468
-23.124504 0 -1.6466529
11.820625 0 5.6634974
-34.104397 0 1.232399
-62.373882 0 7.0368814
32.841152 16.073614 6.4221425
-57.564709 2 -7.1506104
-63.809341 2 1.8783188
6.4430265 0 7.1516643
8.9055147 2 -2.0450857
-42.951748 2 3.749686
-44.082687 2 9.035429
-31.739792 2 0.3094995
-32.437263 2 1.0795152
26.640011 16.454849 -6.0722594
32.842865 0 -9.2135401
3.3859704 0 5.1469269
-60.536621 2 6.2101603
26.554148 20.126375 -4.0894718
35.210148 14.427256 5.6890526
-29.281128 0 -3.321506
17.254734 2.1064005 -3.6703558
41.382999 5.6256504 -1.8017874
-36.576485 2 -0.22050011
24.991291 0 4.635922
-42.563805 2 -8.6517982
8.7751064 2 4.0803928
6.2551332 0 4.2926922
-5.4864521 2 -2.3715243
20.306768 9.3004608 2.9804914
25.302757 0 -5.5483913
-61.801796 0 -4.5143447
18.66412 5.7503057 -2.8186383
-26.296955 0 1.2803183
33.51561 18.001013 -5.0349083
28.866678 16.284798 -6.8869586
-31.008968 2 -0.61819541
-52.348854 0 7.766819
18.858686 0 2.7759769
-41.507095 0 4.4869127
-19.324144 2 1.9252319
-5.6199541 2 -4.3648543
-60.388901 0 -4.5282707
-50.404373 2 -9.5243139
-22.984762 0 -6.2784243
-11.603981 0 -1.131639
-12.991995 0 -5.9074688
22.21183 10.265183 5.779295
2.5868869 2 0.28371185
12.210374 0 -8.5004883
-19.475979 1.5304303 9.0230017
-63.853596 0 -0.40741852
0.12093186 0 -0.79448652
-14.865041 2 1.2042887
32.519318 0 4.8141479
33.912968 22.638906 1.1373429
-33.794125 2 5.4540787
36.445881 0 -0.062358856
-33.739006 0 2.6610327
-62.863548 2 -1.9144516
25.916824 0 8.1800671
11.191687 0 -4.6950588
34.409203 0 5.9337254
-23.065372 0 5.5950084
-37.309341 2 3.6765924
-11.652181 2 -3.7923191
24.18553 0 2.1693211
13.489894 2 -1.229358
39.919926 9.2042532 -0.87936914
31.670416 0 3.065608
-11.513083 0 0.9150629
15.778669 0 0.53118587
-4.7771091 0 -2.3124957
31.56389 23.221317 -3.5372155
20.496773 7.9553504 4.9493299
18.996601 0 -6.8885722
-46.715527 2 -2.1322789
-53.953213 2 9.2362003
-57.650841 2 1.9612341
12.894115 2 6.9840212
37.172424 10.215304 -6.3245273
18.299128 0 1.7469144
-16.061817 0 4.0829816
20.982643 10.080125 3.7460256
32.253754 22.815605 3.3510072
32.957676 0 2.6711121
22.410681 0 2.001802
-1.4168202 2 -6.6128054
-54.056961 2 -4.0215921
-29.386204 0 -0.54294062
38.51786 10.909109 3.5053947
7.9057064 2 -2.9210718
-9.9351578 0 0.18553698
-11.165233 0 -3.186924
-35.101353 2 5.0891614
30.11985 22.109509 -4.3937845
-51.161407 2 -4.914968
-7.6189489 2 -1.8664004
29.362059 23.34734 -3.8226414
11.331608 0 2.889255
-27.925446 2 -3.4316237
38.463467 5.8503675 7.7081289
-23.292376 2 -6.2879515
14.0432 0 -7.4787097
39.338173 5.3060465 7.0753584
-51.379013 2 9.1133499
-46.974678 0 0.18184137
-38.945583 2 -0.1933322
-40.059902 0 -6.816463
-15.650101 2 -2.4240472
40.285221 0 9.4018459
-30.70759 0 -4.5405598
-49.334232 2 -7.5226059
-2.0536592 2 -7.5209475
-50.216354 2 -1.1097589
42.136806 4.2790914 -0.39559686
-3.7885523 2 -3.2431979
-61.987057 0 -3.8284974
5.143003 2 3.4696944
41.55872 4.0521393 -3.9644332
-20.06469 0 -1.58251
34.298618 16.322289 5.3575854
-61.380783 2 -7.3617716
